ply
format ascii 1.0
element vertex 703
property double x
property double y
property double z
property uchar red
property uchar green
property uchar blue
end_header
-1.3079417639081776 1.5390821891993891 4.8437073960446488 67 44 12
-0.5161330595811275 -0.7315090494937596 3.5971298357738037 116 103 68
-1.2462476211291083 1.5553925052967243 4.6187571467290844 50 29 0
-0.5248249001342979 1.8767300959296700 4.2426095619251232 169 140 80
-1.2689685176013132 1.5717843419316178 4.5980567010296749 130 108 69
0.1292608608023796 1.5090518186373725 3.6541655942258413 66 43 9
-0.3585273439205318 -1.0921825544406263 4.4459216172714067 122 103 73
0.4640939342719371 1.4824260416011679 3.8197204013901729 36 27 10
0.8149561856327674 -0.9029488891663366 4.5116814263768967 119 107 69
-1.2611409077019717 1.7451015355707784 4.8756797654635795 107 91 58
-0.4887202218090870 1.8789810971690541 4.2003415336102501 90 68 31
-1.2597644645761292 1.7479721439143570 4.8342517247751813 114 94 61
-1.2393836398391391 1.7477036601738758 4.5947866611582890 86 62 18
-0.4663178358898181 1.9277307580818970 3.9160657538899737 94 62 11
-1.2490264883284139 1.7675409936662867 4.6479684067807785 122 100 63
0.6167931839061310 1.7907526955415443 4.4633640341871290 78 51 21
0.4896044148263478 1.4940624022015576 3.7178761653990708 132 109 59
-0.4655359814405152 1.8957255710279988 4.1250626833322421 199 161 99
-0.1595193435074463 1.9253364862973810 3.9928222752743698 207 169 106
-0.7018816180439280 1.7798809229601211 4.4482734404662176 68 44 8
-0.5057276282290832 1.8683434783835118 3.7372372310204627 124 93 39
-0.5401996000213352 1.7762545147838984 4.4518775699367996 66 37 7
0.0894923668276043 1.4929881687219217 3.9306806918444588 86 64 15
0.1760536860931718 1.5256296978257393 3.6283113902081401 142 122 71
-0.5458411712350582 1.8617348936264337 4.5791545191340024 46 32 5
0.5629114881121308 -0.7054511570732352 3.5976255547689524 99 92 50
0.4599830904542162 1.5025561192146493 3.6940090917198822 52 34 12
0.1394144063108405 1.4896957130003579 3.9404624112388600 156 133 83
-0.1675392103764538 1.9375132000815805 3.9782168037810819 201 166 102
0.4592180537673554 1.5045897598276619 3.6977816440366507 64 46 24
0.8209045634447361 1.8860678023619335 4.2625382363732287 157 125 68
0.2089697777032125 0.0240301227782273 3.5750767609802518 187 188 69
-0.5349026231014214 1.8308299378660808 4.1847216155595461 123 94 52
0.8092762247936148 1.7834887443067335 4.4691525382351776 235 205 141
0.1043014865322634 1.5017834031780262 3.9107657810960679 60 47 12
0.1628730652070433 1.5181137788306720 3.7510762544941598 141 113 63
0.3495678365736083 1.5111011893692112 3.6202864233044960 182 146 94
0.3171035577853023 1.4878886248308001 3.9474996644894080 115 102 57
0.3144309982784644 1.4939321230357423 3.9626088829407062 121 103 65
0.4831859036070004 1.8807217430816798 4.4798257577754699 164 128 70
0.1245412714157805 1.5217739494698961 3.8842983934973923 52 30 7
-0.3873841446758059 1.8953199478347378 4.1334881188688088 96 63 22
-0.2611753080554345 -0.6322693579415173 3.6715481213608259 104 113 32
0.0358082772207513 1.4990919007484853 3.7862400389708655 36 17 0
0.8849283686790170 1.8073602562204649 4.4764992856254953 198 165 94
-0.1835051622193575 -0.6027690694114822 3.6521088857185924 110 106 35
0.6078768549050585 1.8998404108260196 4.1512848888268827 168 135 68
0.2968363783751393 1.5099515593988766 3.9194705963212391 38 22 0
0.7754044187879243 1.9028916344772973 4.2094407392045143 79 47 8
0.1376164938448610 1.5281463391022414 3.8650277898857222 59 42 0
0.1382463484561442 1.5259472630021722 3.8613638233693557 59 42 0
1.2684038856496864 1.7463986791227364 4.4202710224426225 89 59 23
0.4924168593350411 1.4600794968640136 3.8324063041013363 139 90 49
0.4975842920239077 1.4426812985164454 3.7934380104164283 140 101 60
0.2201981341968317 -0.2914898422945280 3.5622539152088657 66 90 4
0.4049129771489635 1.4970475554486935 3.8780438307907583 22 15 0
0.5554100661019746 1.4528879611835497 3.8400235193997108 230 200 146
0.1569626640889230 -0.1512470151013498 3.5648269372577190 226 204 128
0.7325341306541641 1.8738629598079568 4.4438331291847373 135 98 46
0.3481341294810462 1.5266436499492948 3.8904432497978991 32 19 2
0.2060626717052267 0.6265782655156239 3.6608233235963095 217 199 125
0.4598745151380830 1.4817876454410419 3.8276286981337941 32 19 2
0.7011801405934206 1.9159519485634502 4.1587890891341477 175 141 77
-0.4862182342631863 1.8758366934691477 4.2981345996234817 157 134 80
0.2761880539204130 0.8783376947830716 3.7160422245377891 226 209 140
-1.6183001082089723 0.2609009102749719 5.1011613162438563 206 177 101
-1.4900667702774495 1.5767533975053121 5.5040198351656011 225 201 137
0.7742313602980199 1.8564158355248583 4.4107137111794170 81 52 18
0.3163967747831065 1.5367613014121504 3.8018397546367622 37 20 2
-1.5159057467354287 1.6215114559118191 5.5588577862314539 105 83 44
-1.2683743679834814 1.5417204197844676 4.8478527813666217 60 44 11
0.4155405742253868 1.5017064495239723 3.7184661049331211 45 27 5
-1.2747301422047252 1.5465830985945190 4.8608594900292905 61 40 13
0.3285365682241260 -0.6066843165271264 1.5376344325729228 74 40 3
-1.3025902666916207 1.6504270721110261 4.8348958089822274 85 67 31
-1.4012402305490768 -1.9528988159458982 4.3062616854948343 33 17 0
-1.2383041271304001 1.5908358132405351 4.6414138411665586 170 152 114
-1.3220696163758558 1.6691463774071360 4.8440167412032924 164 147 101
-1.4460700800989414 -1.9965884657468351 4.3192160334877894 124 94 42
-0.5951333527165845 -1.5669845227695953 3.5490601122361771 36 27 0
-1.3183572463854332 1.6666224888837440 4.8390263030438758 164 147 101
-1.4478305713480619 -1.9542157390224837 4.3093947817781553 48 26 12
-0.0580843669023074 -1.5539384470708051 3.5622026530791668 32 16 0
0.4273666934350137 -1.2800112432338377 3.0173369703341884 51 34 6
-2.7631463788243202 6.4563620742924117 13.5994205424561247 110 78 53
0.4264963287639196 -1.2925410167119904 3.0210398752106893 226 204 128
-1.3147745405748024 1.6870894266976155 4.8621226821658929 63 49 23
-0.0474505510766203 -1.5369587235444868 3.5723111953400348 127 122 67
-0.0484769977283691 -1.5387216562424835 3.5740572096102334 127 122 67
-1.4407036599744956 -1.8777455982573903 4.3009918481877651 49 32 4
0.7495719774226138 -1.9315575550223778 4.4213312624637870 59 40 0
0.6605321695049652 -1.8933674915742644 4.4150098527171320 38 22 0
-0.2386083557152923 1.8881244266768764 4.2907897232116179 110 81 47
-1.2603896113223627 1.7469732765687798 4.9546965837591213 76 57 24
-0.0472544653039791 -1.5256328112517266 3.5763557185809765 122 124 49
0.2660534037791470 1.4611684568303533 4.0825348128139609 116 98 58
0.6596838244220106 -1.8831517225894321 4.4314634304196598 41 25 9
0.1872272119984809 1.5263014869096183 3.6467059257244592 122 99 47
0.9397253368696827 -1.3122278189668801 3.3555008405194746 111 113 63
0.7465683394671391 -1.8799604907420524 4.4280918101515736 48 22 0
1.0737184021607917 0.5019372576689437 3.4831289993106038 227 199 136
0.7464595796688613 -1.8519791308730917 4.4094367739105653 48 23 0
0.3163552784585000 1.4716714074416539 4.0586773219575081 61 41 17
0.5109334619885155 0.6566827289232525 3.6764926142625103 119 132 50
0.2747710070479094 1.4739453769352973 3.5193145722266168 90 66 22
0.3346930336033476 1.4715780808535270 4.0588487710542882 43 23 0
0.6583277571495854 -1.8294696352417799 4.4259991566118249 41 24 8
0.8104131024462319 1.8211816521924986 4.5198742321271546 55 35 11
0.0175266170703132 1.4809652474762713 3.8603311768731579 48 29 0
0.8994887438614717 1.7816255066394930 4.4341598793827046 86 63 19
0.4335793163313739 1.4777375332639753 4.0086649879892056 33 25 6
0.7443815584194297 -1.8235862278788662 4.4237735008874237 46 20 0
0.8297307209978356 1.8065656698858708 4.4517150884208156 207 175 102
-0.5174801701782542 1.8478708011504024 4.5087035512475726 93 74 32
0.6574174862956966 -1.8182320745107095 4.4422219101770102 36 21 2
-0.5352714910134596 1.8842709548242635 4.5502998302655984 54 34 10
-0.7374172830989714 -1.5521299860444777 3.3560004894619793 240 207 153
-0.5203090425045618 1.8360998587470212 4.4080463496356828 146 119 72
0.4004188440288723 1.4946407668787802 3.9483758572175862 90 74 40
0.7038596908239635 1.8618306162808886 4.5038622083731141 114 81 40
0.3285365682241260 -0.6066843165271264 1.5376344325729228 74 40 3
0.3029554398660155 1.5073693303877482 3.9098760029336495 30 12 0
0.6993941431050639 -2.0030048383387076 4.4063942116782719 68 33 3
0.6563670985149421 -1.7256058719733647 4.4270841062788007 27 13 0
-0.5347332377094198 1.8609199210469010 4.3762152459476997 161 130 76
0.7395563058825809 1.8661613269500774 4.5091573103740101 132 100 53
0.3374227127192944 1.5025030753029853 3.8906725136183455 33 21 0
0.7392818667245775 1.8634650779091806 4.5018035334123638 133 99 53
-0.4131342711636288 -1.3900230597882093 3.5667990418166902 93 109 38
0.8070884883447106 -1.7141876852602205 4.4523698519637067 46 29 11
-1.2684283469069566 1.6338249577675403 4.8973426786227865 125 106 66
0.7794543531430240 1.8333862730755432 4.4421950604222973 49 36 17
-1.4222185569904209 -1.5046347275748961 4.3766771063635588 42 23 6
-0.9347636052337905 1.7034732656823990 4.4338689397127871 248 219 163
0.0797820997244350 1.3559031468706704 3.7882393564631656 223 202 137
0.0851199017091202 1.3195491801543859 3.6587048114055509 228 203 139
0.7401459369928195 1.8910460066803030 4.5233859370581486 78 53 23
-1.4482520545628326 -1.5717641315274455 4.3505738129278004 32 22 0
-1.0398399917663272 -1.4941110087881651 4.3843905086192203 80 68 44
0.3491357447501208 1.4626626371926437 4.0681827627275826 111 93 57
0.3797808110011777 1.4678008857298270 4.0553358402075741 110 88 47
0.4338117201571905 -0.3279304273773726 1.2733115736006997 248 215 161
-0.5575118153356162 1.7816984450932196 4.4325356480527871 204 175 109
-1.4697600132906021 -1.5338058488271429 4.3878490013398519 42 27 0
-0.1749194885061235 -1.1263870290441336 3.6165192573991258 200 190 129
0.2399614532988833 1.0118268748924193 2.3672095935498132 197 152 95
-0.4933887050040340 1.8771175912561595 4.5756795213383716 59 43 18
0.7885790483112933 1.8700728143143484 4.4013922137401797 149 117 58
-0.5459074186641681 1.8538232206324594 4.4859923701289439 49 35 8
0.7867117427401236 1.9030098184406294 4.4691937611769630 154 111 66
0.4466683759513661 1.4810087760945707 3.9906956691302451 36 23 7
0.3808117150421335 2.4248209192067698 5.3969447537713409 167 132 74
0.0697667189500311 1.5038262295339755 3.8516611164977674 33 18 0
0.0145700042165562 1.4903447611108007 3.7909759453042495 33 18 0
0.7190136928359270 1.8138535736524155 4.2288048028571898 184 135 68
-0.4262981999375824 1.9088468344620337 4.6030628418275121 82 58 34
0.7172377507837708 1.9020889119393263 4.3245961760969074 185 151 77
0.7177469073774287 1.8954171322718698 4.3080816043028998 185 145 83
-0.4828791788270876 1.8836814804753628 4.4666092230870502 181 148 71
-0.5060560975819481 1.8583882360064037 4.3677726122306240 162 135 64
0.8450329183407715 1.8135396646035808 4.1546077415646776 217 184 107
0.5673125205217537 1.9020186665107537 4.2193911955704788 176 136 64
0.1558402168869504 1.5342135730338886 3.8781040616255251 57 43 16
0.1684781590393758 3.3153765708786955 6.9132755292731503 157 120 65
-0.0894787293730144 1.7168410520908954 3.5517186401065137 71 43 19
0.7394743600451446 1.9033439316248786 4.2483838469993582 167 132 64
0.7396571686310391 1.9048331446024898 4.2503136194614726 171 133 68
0.5714420845371910 1.9087382050661901 4.1493460428967994 163 131 72
-1.1210870911930340 -0.9235492276927829 4.4307168527319467 105 112 60
0.1143560281179558 1.5251281764456299 3.8461793820771706 133 105 57
-0.5113210822033948 1.9405250406027543 4.5382555042831099 52 31 4
0.2421252847617709 -0.6101264879152705 3.5797388450328413 226 202 138
-0.5584436213657346 1.9094800244099155 4.4350081953657483 54 28 13
0.7348129838830433 -0.6819811255621814 3.9621397428701695 140 122 84
-0.5188460753107208 -0.7331766796992790 3.6929234055927420 195 173 115
-0.7792479331590019 -1.5749697059052794 3.5145607201477520 200 173 120
0.5375783938911630 1.4731131364415060 3.8135846926494299 53 47 23
0.4203854123000558 1.5116349012618728 3.8328510191020690 33 25 12
0.5859461404158833 1.7898995582368415 4.4451522058797108 60 38 27
0.1528995513681372 -0.0652919725569687 3.5831148004623761 116 130 33
-0.3408812892718534 -0.6481287507616003 3.5668874920673259 56 77 8
0.0626620796652499 1.5067971729622514 3.6335595058251853 71 54 24
-0.5057194477515309 1.8804090407077299 4.2460332819826849 168 139 81
1.2505668967422858 1.7726814432781892 4.4426931747673670 253 223 161
-0.7963704419790648 -0.5360240581694170 4.4544038851792562 246 218 155
-0.5085757696950048 -1.4701513265240704 3.5557044929073340 89 105 34
1.2534267164705357 1.7967955095807766 4.4964040366813958 253 223 161
0.9518517507154305 -1.3170210600580192 3.3411627573904270 112 121 58
-0.0820637145658195 0.2779455944721810 3.5575579466437075 99 122 34
-0.3725667103277369 -1.3833537172455435 3.5847534317287759 40 29 9
1.0195091963645677 0.4910415123735781 3.4692356835211395 227 198 138
-1.1567937732403568 -1.5041654059613609 4.3942352396494400 26 10 0
0.1988423979105911 0.9412896534226065 3.5899643361343596 225 200 143
-1.2666386260765543 1.5426078894372706 4.6108079806396463 194 164 104
-0.5786166879786886 2.5936391198988220 5.0344670336323203 73 57 31
0.2174507744255545 1.2875395127759723 3.7364283466451997 232 203 143
-0.8195404196759846 2.6677538325063406 5.0662095030580971 108 80 41
0.2154982331633161 1.2878439472940937 3.7425085387842669 229 198 141
-1.2597056389494663 0.3476375070679849 4.5952607536075991 91 65 38
0.4119699541695608 -1.3151573130524494 3.0066004444438814 95 113 29
-0.1894942477902849 1.8950253854336661 4.1726416995157463 191 151 92
0.6275207121714623 -1.0717166356850150 3.3147265012420464 23 10 0
0.6603362991861458 -1.0889585040491536 2.6322093679101548 37 18 3
0.3471631481325779 1.2689052864895269 3.4291681294128988 44 33 5
0.2236891294751008 0.7495089594974340 3.2310501168618417 233 205 142
-0.9317359582556237 1.2998793695750710 4.5088711495820046 252 221 166
0.9119179172350570 -1.8589908383947586 6.1305224857620120 232 210 152
0.1520503298449217 1.2214154685579497 2.7998816802533315 90 65 34
-1.5808125781556699 -1.1616842423824476 5.0484700895599879 184 168 109
0.3815058933107559 2.3780621270179134 5.3570186030968934 78 54 26
0.8082024380306861 1.8424129641192324 4.3864538814636020 82 61 32
-0.9175211723269316 0.7829722278994194 4.5214507434616795 241 210 153
0.7158370843188525 1.8908032174912426 4.4332143504055281 71 49 25
0.0865747710323957 1.3849242097914520 3.8223625991051882 61 53 32
0.8347511357691512 0.5210411051551073 3.6270718853690571 225 196 136
0.7016284995354012 1.5375634871686137 3.6434278681515684 107 64 32
-0.9125686075505436 0.9527231902317881 4.5004374154282427 237 206 152
0.0900781473713989 1.4781590620511806 3.9854528245351335 39 31 12
0.3544559572923844 1.4717359829243897 4.0295624124058724 39 27 13
-0.6900098242731812 -0.9039047419607209 3.6373941860518575 67 87 16
-0.5766111408914762 -0.8672992285022586 3.7500288598279781 85 96 27
-0.2799482062895733 -2.3192299692500260 4.8983985568846595 26 13 4
0.5514697029234628 1.6591827315718519 3.8158737714043847 112 84 44
0.2029023557653528 0.8486728132665489 3.4145484459377315 232 206 145
0.4329911352579801 -0.8035900737822463 3.4567306713479251 195 168 115
0.2122926103801168 0.8956175318776374 3.5397980018271848 71 56 17
0.7136770482796121 1.8787306831171207 4.3196394425235409 66 46 21
-1.3776885475786527 -1.5032015324312185 4.3723521694021734 62 46 23
-0.9936751165350793 -1.4926245320547638 4.3728572764950773 24 10 0
-1.2885555230693568 1.5701922248060491 4.8563691058757907 74 60 34
-0.6159234573526070 2.5212213567221617 5.0140065830134031 192 153 84
0.7145046296964030 1.9070852923567136 4.2932175825824048 111 86 45
-1.2435740656535423 1.6822565581668716 4.8797315287831307 154 129 73
-0.7703382150431887 -1.4849139356516259 4.3773372139883424 34 21 4
-0.0760482011306534 1.7243673777790400 3.5326038979737557 188 158 86
-0.6385631707465654 2.5661475058767818 4.9894047824403716 190 150 81
-1.5570077695843387 3.6081963476849643 6.7049671282702343 201 170 88
0.6387109396369930 -1.1061187004920205 3.4210069346940157 92 76 51
0.5983274597029725 1.9060912935221632 4.1483423524970675 159 124 68
0.0176719835165818 1.5359022333408219 3.8147448587111050 119 92 45
-0.1571935955564371 1.9956725578541636 4.0165287229553375 73 57 31
0.7960560530261895 1.9089362627207087 4.2274269104016513 179 145 73
0.4241559028564240 1.4978390757172941 3.8013047334790055 32 29 10
0.1102516157997116 1.3155995114288581 2.7537098422874724 106 79 36
-2.0379567598219399 -3.6161527435536724 11.7737774734323999 255 232 170
0.2176548599492838 1.0915869933196389 3.6657645643502539 234 204 144
1.0389624797582537 -0.5418657045815084 3.4281993698259590 223 197 136
-0.1836369021116921 0.1957118971780971 3.4300926016332181 77 103 14
0.4265721031953443 -1.0391360975442205 3.3155335665570433 205 180 123
0.3060196859487902 0.2102226071401061 3.6584743125992856 102 128 29
0.4889349730015248 -0.9028205354662265 3.4364142186926037 72 91 12
0.0259471322147754 -1.4883166346748098 3.4520062923111610 43 29 16
-0.5252638183821587 -0.8437882629911465 3.4777245318171617 217 185 128
0.2911993799885384 -1.3140805308310788 3.1023861468255185 41 30 8
0.2588654417374049 0.2419467439050963 3.6587704782314434 232 206 145
-0.2490903351048331 -0.7655955962740549 3.0659235278393617 152 136 100
0.6214626547917618 -1.0994549229226089 3.5106069701252030 234 208 147
0.3998063916372972 -0.8198420187677086 3.3729934230514829 124 115 74
0.2503571930036512 0.3388363697185096 3.6689171476406970 103 118 23
-0.8441210868917109 -1.4964572923251107 4.3852490746082839 42 30 16
-0.1390775329228892 -1.1070235531220738 3.6572998856026890 76 97 20
1.0484711335224473 0.4819252815271474 3.5202717502763083 115 128 48
0.2402803119984613 0.5615596347332061 3.6681894890390971 137 132 38
-0.2816960849507230 -2.3503052447480401 4.9112140424873845 22 14 11
0.6134030800400404 0.5887350139838591 3.6904850019050439 107 128 35
-0.9126122115354829 1.1522662810731228 4.4972562843673822 238 207 150
0.3367463081290283 -1.0587580973671753 5.1889647100978271 103 95 59
-1.0803990762089031 -0.9528751352435271 3.8548563331715542 45 62 8
-0.9043781366170582 1.2337109057204854 4.4551849756755182 228 197 142
-0.4987296692266395 -1.4996529462262616 3.4491366375244175 39 26 7
0.4874343306672840 -1.2096329063052405 2.8938171393669689 47 35 11
-0.1727431303795708 -0.9836188223548048 3.7069408191438065 224 199 143
0.3003901078130080 0.9286556866949125 3.7172751159579014 233 202 145
0.2571494463167993 0.9116509806483192 3.6848404740832454 127 96 41
0.6837164018095087 -0.8661916813048056 3.5217859306205095 143 128 89
-0.2863641858723215 -1.2575074135609035 3.5926615678490097 106 124 38
0.5113539634187636 -1.0900736859647946 5.6081386247281682 172 150 101
-1.2880963319331178 1.6390648191934545 4.8712475205478798 62 52 27
0.3207036248768167 0.9182616821726300 3.6452507716506179 231 202 142
0.2113205562335206 1.2584112550825572 3.6926091581480724 235 206 146
0.1526254244726089 -0.6130367514342826 3.4957828590940547 62 84 9
-0.7218890730913787 1.7166457786782554 4.2548630356111321 43 36 18
-0.5510075408738742 1.8903538772485231 4.3453882418908094 154 126 76
-0.5390273926483570 1.8245314620656636 4.5037942489314569 51 40 10
0.3622650937699683 1.4014444829956612 3.5391590793759566 39 30 13
-0.2144992643511787 -0.5865995991840171 3.6779935613804748 96 114 30
0.7862067272417402 1.8021128168580896 4.4244453811684634 60 46 17
0.3789996159658571 1.4915373009994322 3.5977192753841565 142 113 69
-1.3811910621339212 1.6272225294896792 4.8750716216850929 165 138 83
0.4122361484231788 -0.9708953575151108 5.3851035941317784 102 111 48
-0.0737384079621612 -1.1862734685075218 3.5336397928724983 55 43 19
-0.3632825121486699 -1.2303185080681789 3.6120835781191514 70 57 40
0.2123627381737181 -0.2729331917431246 3.5842581900935895 78 104 17
-1.7835772924605511 0.2735857917821764 5.5867855950750700 250 231 152
0.6144182495060796 1.4249214526694107 3.8111787647286781 231 197 136
-0.0567772491651415 1.4480458868698267 3.8181222691523651 236 204 143
0.7878501395690686 -1.9005664198052641 4.4289999015826398 73 64 35
-1.6012801177855249 2.7575353377235885 5.9745204645780090 144 120 72
0.5697318046987945 1.6044609199926037 3.7580929021911631 188 151 99
0.2452627742807534 1.3587330146906356 3.8031864797262251 51 20 15
0.7010182967343493 -1.9581904708018243 4.3863074531390449 242 213 153
0.3155528261932132 -0.9437876392643645 3.3436297805235795 56 76 15
0.3108072415957255 1.4138074207313487 3.4896472597555954 208 178 124
0.2359011434898785 0.6710605524653305 3.6792428246438513 137 134 37
0.1786717935413641 -0.1109066438122466 3.5787640638200111 135 142 38
0.1077909660265301 0.3266215555808172 3.5909304010308829 227 201 140
-0.6578127089720930 0.4324121498862766 4.2772525209224286 228 200 137
-0.6469305113718155 -0.8968679533790174 4.2534139419042738 91 93 54
0.8692739360120363 1.6776752776871660 4.3904884040896626 235 203 142
-0.1405742165002765 -1.6505876353277702 4.6462557604255599 100 87 68
-0.8267050318430428 1.6521729648517511 4.3995946793478042 234 204 144
0.7790358249199300 -1.2716759256686805 4.3251103912632107 222 197 143
-0.7491672232211405 -0.8891295947725081 3.5869897101561183 63 80 9
-0.8897608116368259 -1.0342054683969280 4.8639431661775268 97 99 52
-1.0001878281137897 -0.0630441646414894 4.3322184816613509 74 64 37
-0.0272903108976223 -0.5472304903837671 3.5583573810086158 219 195 133
-0.6461768881050197 -1.2843084051325784 3.4004825044349536 44 28 12
0.4228528060547102 -0.9598302693467947 4.3787174375103515 149 149 95
0.5479398958656365 -0.4670231952505833 3.5539006269564304 225 199 138
0.3669913992931382 -1.8392511663581783 4.8160564520990663 89 77 51
-0.5107409838014840 -0.4060680053731284 4.1127109662030126 224 198 137
-0.3237431977367921 1.8908981028240559 4.2314037564771017 195 162 108
-0.6054344454550347 -2.2343646601456015 4.2497070301512752 225 202 160
0.3269767523938927 1.4618851821147307 3.5232169802102082 191 156 100
-0.4657367478219170 1.8579469095557901 4.4494674886034504 77 59 35
-0.4709544844782746 1.8958645405070629 4.0826229585203402 182 150 89
0.9458267941806359 1.1333622160046803 6.8365021728358641 129 126 57
-0.6993141627208441 -1.2110115283296463 5.1891482680875400 152 133 91
0.5760146767431785 1.8797854746997673 4.5303577043440493 127 95 48
0.1927367135957359 0.8787298819893536 3.5403524695107849 57 56 0
0.3467087125565277 -1.3613513152773866 3.0475780077093844 169 147 106
0.2587323229913551 0.9120724353049845 3.6884090939240277 128 103 39
0.9667431897344388 -1.0689235575758735 4.5066993543131924 140 121 78
-0.4647766653307837 1.9006224720347658 4.0093307444087785 185 147 85
-1.4533175369175153 -1.4366703584021583 4.3668580270133788 213 184 128
-1.4533502825413416 -1.4368767591646230 4.3668724041335985 213 184 128
-0.3910537956276289 1.9083831376325122 4.0373135516213701 67 32 2
-1.4997114383491192 -1.9353814648103531 4.2957103895164748 222 192 138
-0.5622369269866402 -1.5275117613900759 3.4901190470890202 108 105 50
-0.5798171220412408 -0.8951074872255563 3.7732487209614503 138 122 70
0.4253704582153264 -1.2841440676004776 3.0032586615254777 243 214 154
-0.0475450156411537 -0.8498173309727219 3.5847159854993698 199 176 126
0.3905081217660039 -1.3117117262687203 3.0950889647539985 97 109 35
0.6980155975013586 -1.3936529949587384 4.4734700835848553 119 84 54
0.6443059950009046 -1.3646086993694524 5.6818096607416493 205 181 119
-0.7317385336611427 1.7783958912971238 4.4470570013849189 88 64 20
0.7707546562870339 -1.8920968459928726 4.4543136267891574 61 45 20
0.2716549655159058 1.4774324937431209 4.0908302710499527 40 19 0
-0.2912073533555372 1.8583562901331363 4.4109312692046911 179 139 70
0.6591357774082410 -1.8639654405884634 4.4289978519475968 42 25 9
-0.8515853297341599 -0.7999434249401592 4.4383372452426304 213 191 134
0.0399395231425853 1.4937676383708189 3.9626075686696676 41 19 0
-0.1685944546072258 1.5740431308528067 3.6959121520261355 105 85 50
0.0832704783935782 -1.1392634420998484 5.6882577717941292 99 93 43
0.6455496651305845 -1.3837080486235156 5.7511503106082502 203 179 117
-0.8349231200943529 -0.7974175391283614 4.4377196582847898 221 199 142
0.3850789525705799 -0.9646883676681463 5.5138023932888709 100 101 43
0.0629132848985818 1.4827194479361041 3.5924305969529029 180 153 76
0.0069285984894433 1.4891949577440993 3.7755159489090802 117 97 62
0.4994760849417846 1.4935382135823967 3.7660719571036414 46 32 6
0.7492338053517088 -0.8738649163014092 4.3917437674589284 107 98 59
0.0851604936317903 -2.2294963473791807 4.2665224923616059 64 43 16
0.4190093726080794 0.8284712017884224 2.1048821160364835 80 54 19
0.3102647533213302 1.5461372099659021 3.9433245411510498 99 65 37
-0.9466610671918559 -2.0254013906369051 4.3351217441238719 94 67 24
-1.5080016021842251 -2.0050646336519988 4.3084373023465492 201 176 122
0.2609866723176178 1.4953775497011661 3.5813014643280106 92 50 12
-0.4021348929134033 1.8585150333484175 4.4049512881104906 93 62 33
0.3706485039804224 1.4855342918322165 3.8149568669663729 103 61 36
0.4618522349617754 1.4628344610814892 3.8093161315819684 158 106 67
-0.8984408677594392 -2.1768827172746317 5.5394778670406177 50 38 12
0.5241044692331022 1.4814699620314438 3.8536032387301398 30 24 10
0.0426103836430456 -1.1770154587362516 3.2044511113099881 54 42 20
-1.4965028387522095 -1.9270930460533093 4.3103402562628821 134 107 52
1.0558545889555917 -1.0154605296012063 2.5016123228436200 43 27 4
0.2133824748520565 1.1931043411936555 2.9637813588332040 202 163 86
-0.3930131556931127 1.9090284446513635 4.0386583100650260 80 48 23
0.7348240219267684 -1.8646247347953409 4.4206465791610290 248 216 159
-0.4487268326019926 -1.4227383445495010 3.6054197446134664 125 133 73
0.1680023428397480 2.0272574663301142 4.8684750677015742 54 37 11
-0.2329693093460051 -1.2255476819853612 3.5387104988440492 116 129 47
0.5130683673645380 1.8854033187618731 4.6644160330306192 56 32 4
-0.4682444140896113 1.8892772813094831 4.1501175437962976 179 149 89
-1.4499053744366257 -1.6911607381908904 4.3429233716873101 47 26 0
-1.4481823655007284 -1.5425355672881571 4.3557935014505382 45 28 0
-0.5814561859507622 2.2869715819779319 5.1776391324165409 204 159 92
-1.4360997026321809 -1.4455335967239422 4.3778184133109832 105 76 18
0.5657960030076052 1.4593220782300940 3.7661127033908794 205 176 118
-1.4820361809960345 -1.4334880649698862 4.3734097861359018 99 68 13
-0.8916723789125964 1.7714494196269808 4.4293591617608810 62 39 5
0.1137163440413869 1.4664384548518656 4.0103235159240240 40 24 1
-1.4863016012310342 -2.0097336886989843 4.3045421547286242 157 125 74
-0.2203235982292740 1.8900684010753197 4.2523272383316391 193 156 88
0.2973763313050929 1.4696059651488522 4.0586563723847933 45 24 5
0.6990764276659495 -2.0017058026462342 4.4059529200336742 63 30 0
0.2624900696334332 1.4825715679930380 4.0147847325485131 45 30 7
-1.3416705814912850 1.7161836708962663 4.8662953337684600 129 115 70
-1.3411389335759252 -1.5015211807665811 4.3742220598106014 55 39 16
0.0516847177952114 1.4804889707405111 3.8478008351684978 164 131 88
-0.1283608523521744 1.9225216709771722 4.0135305500258909 191 153 82
0.0550630943265466 1.5672627916973370 3.7111105165819613 45 37 16
-0.1691074675850500 -0.5372560164668476 3.6233089548966775 107 118 42
0.3147024707585827 0.8222059934042767 3.7164737488909507 236 206 142
-1.4719673404703388 -1.9437043134893608 4.3031150981749615 215 185 131
0.3259948887735173 -1.0735610223644561 5.5105572783961074 197 171 110
-0.4916581025634872 1.9008966922137902 4.0333149686734000 177 150 81
-0.7922788554050438 -0.9988758093657079 3.7721081143593866 72 93 18
0.7519014674674083 -1.9215707331127687 4.4093264223578847 56 40 15
-0.2122466674537801 1.9463843446234914 4.0561740691814210 91 69 32
-0.0084271126837711 1.7027978937775561 3.7981408571713065 108 86 49
0.7294972959986307 -1.8674785095997537 4.4249122919396680 252 222 160
-0.5627072071777423 -1.5316405398550439 3.6295591100657747 95 105 45
-0.3251525626652746 -1.3172914663370188 3.4856123028198378 73 62 44
0.7359963617069470 -0.5427210712604555 2.8043095605420318 109 104 64
-1.4466376241349936 -1.5031170551832449 4.3633277786815361 36 22 0
0.1277091728347974 -0.0704526284707526 3.5933026909145247 218 195 128
0.4506318492864178 1.4762232919589033 3.8961888707268781 34 27 9
-1.2247588172941279 -1.4995484165465318 4.3768679825788173 29 14 7
-1.2557356289606345 0.3463994599417302 4.5882682649110871 63 36 6
0.1476048006405855 -0.4294513060289833 3.5062586813587142 220 201 135
-0.4537436093467119 1.7298356446050320 3.9833095486322070 75 57 35
-0.5527030791186273 2.4434014213707833 5.0765283844692339 111 86 56
-0.2113179625372013 1.9207908926008248 4.0523622591457924 194 154 82
0.8047611197558839 -1.4806773754859781 4.4868901739747926 19 5 0
-0.5066147017770090 -1.4792283035161904 3.6365089015370655 90 102 38
-0.9386648449402402 1.2621258352125286 4.5045225080339089 228 197 140
-1.4071103846735384 -1.4763691399038437 4.3794634301654076 228 199 141
0.8372833771138996 -1.4815032240371009 4.5026972022332812 107 92 71
-0.2432485682606498 -1.2012720404041022 3.7625422568290068 97 114 44
-0.6608756572545778 -0.9323604292299696 3.4678292847452838 193 171 122
0.3909452315212607 0.6780057712772375 2.7460084176490120 238 207 150
0.0783984244456845 1.4885569150929150 3.9373392588104887 151 126 72
0.2619469120716592 -0.9703118617201564 3.2879414787535182 250 229 162
0.3154043739773250 1.3833332473374969 3.6093927377386597 38 14 12
0.5588875993963511 1.4565027347751456 3.8569540823295032 230 199 135
0.1326932697611565 1.4754367492603464 3.9237591114205665 128 108 57
0.0409053093778176 1.4859235233140162 3.8263532425333531 144 111 58
0.4944810690168769 -0.6533617120137331 3.6969384712792248 103 112 49
-0.0484051635790581 1.4510916923005628 3.7013729955011252 101 74 44
0.3071657828135981 1.3324784605395170 3.5078286568333179 204 178 119
0.2586697141177208 -1.0314221343547048 3.2748312579259720 195 172 118
-0.1133903492113437 -1.4194635318518183 3.2986733344379315 42 30 8
-0.5259425183465545 1.8481590775305206 4.1551434543054251 121 94 49
0.4314249551502954 -1.0630961983209586 3.2576884917100402 41 28 11
0.6128307718845434 -1.0225950087418745 3.1607897956619344 42 29 13
1.0542590362061122 -1.2924879780079637 3.9606797404386693 48 31 11
-0.2365226586632528 -1.1293947127715118 3.7465875601977978 247 236 174
0.4662279823930547 -1.3227127792429239 3.1292551570037888 84 72 46
0.4317339766448661 0.7272417618505267 3.7138345951220453 128 143 52
0.4538480545368409 -1.3512944399339608 2.9807346753616457 46 37 20
-0.9581352824213140 1.4011398828864892 4.5450685252528240 229 198 144
0.2555883812583894 -1.3310946931241592 3.1541250173282633 69 58 36
0.6445138573295360 -1.8997326941226877 4.3873221533342130 112 98 72
0.2605017785583943 -0.6688620847708201 3.7429005674793965 103 115 41
0.2626607977391791 -0.5917803551686527 3.5501134393922933 220 194 133
-0.4920907775686251 -1.1741925951489158 3.6294199676789813 230 200 138
0.0196114992288651 -0.5916095703119502 3.5054631063323716 227 203 139
0.3194625194142274 1.2519019901268948 3.7082494495606100 230 199 142
0.3934077572149772 -0.8141825918806110 3.4546168346406088 137 133 72
0.1635463890609916 -1.0267423136996439 3.5186618936966467 253 227 166
0.6432587410976280 -1.0091583710404821 3.4675434578050872 42 56 0
0.2695718128349586 -1.2995081251757630 3.1003708310811255 28 16 2
-0.0865744451600218 0.2930112217021572 3.5242923525450935 97 117 28
0.3952671928073898 1.6151149984873372 4.2763319608211532 44 29 8
0.7211221682388180 -0.3239756367568714 3.5682869685888043 74 98 12
-0.6090963249084848 -0.8248655132622787 3.7573528863567205 83 106 26
0.4908600149788492 -1.1074362363023220 3.2558653466132732 46 36 11
0.4501988078045482 1.3684795637344636 3.6485570857528247 41 26 7
-0.0563949943164530 1.3625727544060664 3.7410356613008413 238 206 145
-0.4800135159403451 -1.1774060095613179 3.9716320586117728 225 200 146
-0.1562661222020015 -1.2595909791756799 3.6287678144442386 120 106 80
0.8149438150693368 -0.6077885560589558 3.0066222392993258 113 105 69
-0.9318951553050973 -1.7097563034482117 3.6386552979446498 40 29 1
-0.4750278339113035 1.8583067293628395 4.4929910711288903 149 123 64
-1.5032851418829327 -1.9421815004106133 4.2748411049496760 134 106 59
-1.5784105552424583 1.7724799897008399 4.7157217205167665 65 51 24
-1.3087488359801975 1.7149645766167396 4.5995935864899122 41 15 0
-1.5190915288655318 -1.4714783672606644 4.3637518353567293 131 102 42
0.7706416534391655 -1.8926144393052906 4.4534638691496538 61 45 20
-1.2993680463648092 1.7872950589697205 4.3964410447322724 85 65 30
-1.2092486943275518 1.7864114030894482 4.4119748629087940 55 42 8
-0.8627895723653989 -1.4777986842297026 4.3481931868227095 98 84 71
-1.1207378275131610 -0.9157148080525258 4.4313527432883868 109 105 60
0.6581923761423827 -1.8495109069765541 4.4364568820230783 43 26 8
0.7413489196086760 -1.4695635898875379 4.4622470896221484 93 74 59
0.4070427922435276 1.4834696913781564 3.9244739819694825 92 76 40
0.6598220293584082 -1.8271165276226622 4.4226038012670159 47 24 10
0.4715412499549898 -0.9189991178102326 3.4272422952624173 210 185 128
0.2574557469870069 -0.6186172349469451 3.5380367096395995 118 106 64
-1.5591513930788421 -0.6078415174907263 4.4809372695278116 81 76 38
0.0294446737548679 1.4899950078629776 3.8218168548334090 154 122 73
-0.8704943623063771 -1.0459062067264455 4.3974018052042574 139 121 81
-0.4871436498942761 1.8669867389559025 4.4672617567268214 62 39 7
0.3854636735602966 1.5126771305773601 3.9100389679332337 31 16 0
-1.1269820891266691 -1.0633105977677140 5.1744124856857585 106 94 52
-0.4572575197559571 1.8961489235001754 4.0759767178775839 197 168 90
-1.5509925127714972 0.2975735187985537 4.5751877952462108 108 86 26
-0.4895545168271633 1.8832095824705253 4.2084834071292923 90 68 31
-1.6017113839566075 0.3140222339173374 4.5715196045459230 123 101 43
0.3573396622414011 -0.5991896041032371 3.5148381054984013 239 219 156
0.6086900409143534 1.8665363787268425 4.5710978221702439 52 31 4
-1.5722315540797993 2.4108454965168904 4.7974359669550797 46 30 0
-1.0120854840396871 0.2959801798857383 3.6676359616442724 134 112 54
-1.6211174237266686 0.4250280471446430 4.9810188741852688 144 115 57
-0.4549562140170509 1.8761926543451586 4.2759068051335429 190 157 60
0.1475293241192137 1.5112457444939427 3.6390130081835048 71 48 7
0.7383950829390071 -1.5264602707305175 4.4583272399253682 29 6 0
0.3115050676278265 1.5311049359160593 3.6916720155260263 139 117 68
-1.5654614236955946 1.0961069124433416 4.6626975171258023 65 46 4
-1.6254640683027155 1.1144937188551893 4.6692678464046891 66 51 8
0.7389956214090708 -1.4897228813188319 4.4573924555471418 31 4 0
-0.1093163753608300 1.5560241766608927 3.5587305706751953 190 148 90
0.9120550805096808 -1.4861841490128616 4.4945032694994493 62 44 24
1.1108487376952549 0.5932299256609086 3.9020041944653743 129 126 57
-0.2520492386773245 -1.1853978205746243 3.6104896556696193 216 190 139
0.7464369684164165 -0.9160066227307795 4.5806297504355031 122 110 70
0.6320824403592704 1.8765918025231556 4.6422726646407915 64 41 10
0.1192512263492849 -1.0852920029092634 5.6110333222190230 122 122 60
0.6234237368991193 1.8909075558799791 4.6434973154012456 97 80 52
0.7602976689599981 0.6373641548037342 1.7759707951163159 76 42 15
-1.6195849366734874 0.7083573816714718 4.6230160717954902 87 61 26
-0.5190758471881042 1.8828836180739073 4.1686509082192735 167 142 85
0.7771859997360541 0.4953004288889703 3.6742515392320536 227 197 135
1.1440050309819081 0.5589794589969598 3.6992522929409302 79 82 11
0.4495374055898635 1.9090349793870947 4.3274380508184542 160 125 67
0.2404600319442200 0.7978129227810618 3.3864521973830488 112 111 31
0.7536909874809181 1.8854726468842939 4.4004739570582574 187 152 98
-0.5087487221228748 1.8912881915300750 4.0993717778411325 177 147 77
-1.3055749509024637 -1.9961760318913540 3.7707162218572048 61 48 14
0.4387873918304054 -1.4006946045750286 2.9640869682056485 38 29 12
-1.1767176946539901 1.8225243913219376 4.4199841896427801 185 158 111
-1.5812503990820985 0.3355008396356552 4.5521898391181361 188 164 100
-1.5358837539050474 -2.0368830316153645 4.2653449435961521 221 209 149
-1.5031340723126958 -2.0294225390813425 4.2524503664388105 47 33 4
-1.4918260458143429 -2.0186182212838446 4.2591715569143043 219 189 129
-0.6110436548783679 -1.6265242490951644 3.6903342856992771 29 12 0
-0.0483827263724006 -1.5256776276064754 3.5773186665722623 122 116 64
0.5572342385855666 1.8774531708453248 4.4356696592641756 173 137 63
-1.2682593776764493 1.5805242122991119 4.8506034734921766 61 45 19
-1.2987197905381553 1.6595170353133235 4.7692300376261851 68 47 18
-1.3309111868981334 1.7158962462621807 4.8024998748885208 133 118 75
0.5294562083979348 1.6607619901877611 3.8200793701122557 165 133 76
-1.4178412534176652 1.8074207904877055 4.4865638197734494 78 62 28
-1.2153798747602675 1.7731102479868086 4.3948772306114332 157 145 85
-1.2270494619414893 1.8056414046117195 4.3128437621730660 198 169 109
0.7318482508323718 1.8883533913871728 4.3840530239106092 169 131 60
-1.1557628630025671 1.8734399433779632 4.3818094002263024 211 181 117
0.0318363139802254 1.4760701821367439 3.9386513099049765 100 82 44
0.3049716076716604 1.4651011643787670 4.0768666363845103 122 100 61
0.0475194800681511 1.4847735530048825 3.8572341948609430 151 128 76
0.8218808838266224 1.8221945452315913 4.2681196043176914 75 55 30
-0.4528646136937506 1.9084775365789819 3.7271152940668291 170 136 75
0.4298223835987412 -1.3316104178313066 3.0136780381354455 157 134 90
0.2328781659328689 0.7781638710734269 3.3415204633631577 233 207 146
-1.7238875207150601 1.7512654402581624 5.0716429811427641 50 38 14
0.2243292682220104 -1.0941883366068128 5.5965302278593549 197 176 111
0.3577036542772797 -0.5924975485072445 3.4932790772847189 235 205 141
-1.3147586037167331 1.6475629261555609 4.6178028329795842 145 124 79
-0.4943859312990991 1.9039103757778648 4.0371188584189532 178 146 73
-1.5897492235245010 1.7701255324788434 4.7220480633619681 60 48 24
-1.2430738405125834 1.7800207240188426 4.3893253477222283 69 56 39
0.2234047428475893 -1.1334160852854909 5.6189060933495139 100 91 58
0.6560845575477021 -1.9212458458530144 4.4068867179748938 48 30 10
-1.1744170840856323 1.8440736993717359 4.3993397943555443 38 29 12
0.5511732764186726 1.6022151193272716 3.8207578374490967 105 86 54
0.7197495386929297 -1.1139780143109548 3.4379584973164850 100 118 34
-1.4250063778552491 -1.7468042989030321 5.0666895331566320 23 10 1
0.6800221207171332 -1.0492743711156345 3.3258393697624196 207 185 125
-1.5036945858500568 -1.9627504412263468 4.2774568913400817 176 145 99
-0.5143559263975755 1.8884667790054919 4.1368558585368911 71 51 26
-0.3662681182587844 1.8917438996182840 4.2129101414829684 67 46 15
-1.5935859262598195 1.7079925336700377 4.7776792197193956 117 103 58
-1.5792448863133912 -1.2772528901256222 4.4013142308431057 213 188 132
0.6456961435046920 -1.4774060811950520 4.4673484623325859 80 58 44
-1.3874931342935117 1.6539577853639673 4.3882568391267105 147 129 67
1.0080244197835289 0.5195712949855003 3.6374655575254136 224 198 137
-1.5691537635824864 -1.4362438508827293 4.3747710939767170 255 226 166
-1.2404784025192912 1.7750325868376042 4.4222658492294267 155 132 90
-0.9112144135462440 1.2899910038783307 4.4742484731573446 250 221 163
-0.0451466066637850 -0.8339128289312190 3.5572152624604749 201 178 126
-1.3773055920224488 1.7454253837856508 4.5954120039284767 159 136 84
-1.2768074722057619 1.7254302189299009 4.5926830923939095 207 177 115
-1.2755214266675057 1.7248963647433009 4.5901131659311796 207 177 115
0.2890226444232278 -1.4313909612885161 5.9084954523935513 189 164 108
0.2100854388412500 1.2816903835577818 3.7263387568568671 234 204 144
1.0076239898666197 0.5222388763194682 3.6360923383166370 224 198 137
-0.9119068026401238 1.1493972661762770 4.4943107494243266 237 206 149
0.2253949714418836 0.8256826613580849 3.4208828639201503 101 115 28
-0.9752856498511806 -0.9772599466058698 3.7362083519369467 191 170 115
-1.0092863216300738 1.0482408050767569 4.5541891949029409 157 134 80
-1.5460378656413116 1.7397989433257401 4.8233511903412207 133 116 73
0.5107123838217003 -1.4830368965263967 4.4503183722474278 44 28 13
-1.5396774707995475 1.7106893498610727 4.6444409528497506 59 49 24
-1.5436826324872295 1.7376148655299521 4.8181055901983072 133 116 73
0.2225253786902228 1.0924955338023217 3.6686184093138414 235 206 146
-1.6044080539962919 0.3393401907047900 4.9269248642493473 187 158 98
0.6337638686946169 -1.0720523267065238 3.4143907765899892 204 179 122
-0.6991319713774288 -0.8750614944763470 3.6987525297979524 67 90 10
-1.2597556672722647 1.7279293117213419 4.6750316831592906 50 38 16
-1.2528627288002452 1.8012153071096237 4.3477564625704694 176 145 90
-1.3445295170900440 1.7658431638987067 4.4327166802970313 59 45 19
0.4001942735435753 -1.3988593005183485 3.0015934224819754 97 117 28
0.2627054101527461 1.4458320686818931 4.0415477874789625 80 60 27
-1.0193712636108401 -1.7395428112648956 3.6318134407153386 46 37 20
-1.0648863085893443 1.6565824011185546 4.5027808078774481 46 38 17
-0.8546697501779518 1.6854800757057962 4.4446772905369842 237 205 144
-0.2023349201558706 -1.2794061971674280 3.6888925198488525 37 26 6
0.3233888965120378 -0.9538377668005501 3.3313746558290798 84 106 5
0.4374503946367606 0.0206763694467759 3.6181611976338144 86 105 16
0.8562143166306424 1.7670096605534049 4.5311654434098889 241 207 144
0.1602862638344388 1.6244061722119016 3.6527989092188249 32 26 12
-1.0421211545478890 -0.1000425763940340 4.3329469871031678 52 47 27
-1.1086911092674003 1.9791925086198565 4.5869537971744654 57 45 21
-1.0472397970583061 -1.2898588353691673 4.2220701977718367 214 181 127
0.4898998641031158 -0.9765915266384773 3.3232672951443538 254 245 180
0.5751490272167630 -1.3452862351425983 3.6728479780772876 58 47 19
0.6616243959327516 1.3278813460883592 4.1249753735756176 235 205 145
-0.6340606211274746 1.7678675158608401 4.4522479403568687 230 203 148
0.3101762013973287 -1.0854047157366946 4.3194327489019892 158 158 96
0.0428061941479705 1.4869159502274387 3.9486168802336294 43 28 0
-1.0401542912580140 5.3306492079298406 11.2409738107444053 109 75 38
0.5261729111892370 1.4549841616828409 3.8391908591648463 36 19 9
0.2547710750716867 1.4916071756813214 4.0337879502455891 42 30 8
0.2553679984044609 1.5125156941336195 3.7665665434718449 47 19 15
0.4487904534130108 -0.6150868668235788 3.5513754168480793 118 114 69
0.2755561738079280 1.5129106703401360 3.7659493654796763 150 115 73
0.2665524252321405 1.5125508255608386 3.9312691092458132 114 94 59
0.2722028017366885 1.5217033146310655 3.9190371363771175 50 33 15
-0.7276784898420496 -1.5377229732613948 3.4808227272500125 45 29 3
-1.6589917186579426 2.4401369955394361 4.8340258484202598 44 26 4
-1.5820505093996959 -1.9159862626524273 4.3249088788996790 119 97 48
0.2501966102966422 1.4979898671027720 3.7520045396585013 152 122 60
0.2446255827678182 1.5041667348525900 3.7648572256516535 155 129 68
-0.4053896318250176 1.8818251991920945 4.2795596168687746 110 76 30
-2.2071932748917638 -0.7848246431480623 4.9807216245352937 218 189 119
0.2289324598826968 -0.5691555420854002 3.5717850301380438 227 215 139
0.3099523882511739 1.5122487788770371 3.6236145381345555 140 113 70
0.4424823032109724 1.5125422702931397 3.7008748304442296 109 92 62
-1.6026727662713069 0.3136252370926705 4.5730293321941762 122 96 47
0.0022776570089864 1.5362390921615179 3.4012338896538354 96 66 30
-0.9363209693205811 -2.0170015970264155 4.3196736162335228 79 47 6
0.6518642600133799 -1.5128555801108627 4.4535060715719723 28 14 3
-1.5230754371601398 -1.5287339143009824 4.3715798903087091 123 93 41
-0.4538258043282876 1.9072834838772403 3.8802374326345888 94 62 11
-1.1180139896266521 1.1046942796660377 4.6907899926621210 84 60 24
0.6802098746077812 -1.4009713193336339 4.4720144196708036 200 169 122
0.4321025435594015 -1.3737806107018817 4.4811057962156324 69 42 0
-1.2636724671637016 1.6072493272145258 4.6704906849118366 164 147 101
-1.5429910300536522 1.7453029236955770 4.7782950288157551 134 111 69
0.5236578448316801 1.6680519508677616 3.8546211272584849 171 138 105
-1.2658574542676007 1.7366784580921268 4.8463539462647667 59 42 14
-1.5821713470521475 -1.4618556293835592 4.3751153769807436 120 96 32
-1.1785938930806903 1.8260109942664455 4.4239847838875628 185 158 111
0.2051976357466420 1.4653902231290277 4.0449767373822354 23 21 9
-0.9543639616661281 -1.4243527173524166 4.4040638695074676 59 36 0
-0.9267194451179666 0.8411162081888605 4.5174864197421725 234 203 146
-1.9495675048656957 1.3222808716311423 5.0058997068332980 47 36 14
0.3779938614446701 -1.3012277104533791 3.1193664258064433 227 202 145
-0.5252635166114514 1.8663975320988135 4.3046818270920921 153 130 63
-1.5327846600236081 -1.9604579908947923 4.3097344863726512 109 82 39
0.7321453456144041 1.8889828866706855 4.3841160738813683 186 137 71
-0.1177559471746691 1.9465311607936417 3.8110771980090936 199 164 96
-1.2164042756276181 1.7877848664227458 4.5234068428703864 83 63 36
-1.5454101930849242 -2.2730234358665999 4.2031854636174568 206 176 126
0.4653200420462948 -0.9129180590592481 3.4632117681281680 73 77 3
0.3097831290433097 -1.3310609734457695 3.0900165498614083 238 206 145
-1.6023332254504881 -2.2960840715602102 4.3070162570231139 47 36 18
-0.1913805499033108 1.7130223218331393 3.9443559485639268 104 86 50
0.5748634877022631 1.4833230603549403 3.8188954560346935 76 57 25
-0.9039404612014521 0.6305285314223255 4.5061891648086219 222 191 137
-0.9234139982840076 0.7823978409721610 4.5280163210295301 231 206 149
-0.9107668275921081 0.7104528400809151 4.5145559486536495 214 184 132
-1.2512724343728638 0.3436849698158529 4.5815525164187179 61 34 5
0.5750500475638738 -1.4817945721754582 4.4640639749020714 26 14 0
0.5518330592485511 -1.0405913179681310 3.2244563760949396 58 41 25
-0.9164891908114100 0.9589418503535188 4.5113955476597463 221 192 136
-0.4945249811777044 1.9158152710503416 3.9768481491502370 159 129 59
-0.0353126097931260 -1.4925995539097279 4.4503891939180082 24 10 1
-0.2619887232535221 -1.1922167554258993 3.5857903093612813 43 37 15
-1.4268053867175612 -1.5096415566423340 4.3533988049659573 62 49 32
0.0162751992083601 1.6822241671250064 3.7298987115648505 120 96 60
-0.9236504506541456 1.0617974347772652 4.5168213538443505 220 190 136
-0.0547472754801965 -1.0681719026630618 3.5833555717859582 248 224 164
-1.2401108367045917 1.7760227659669101 4.4204800874400894 156 133 79
0.4981084637762262 -1.3078712126688661 5.5859407587844103 129 116 74
-0.4675636503487736 -0.7412522858870075 3.6188144296490274 51 73 8
0.2127915386258113 1.4462340770029702 4.0955665626652129 61 49 33
-0.6715782788834558 1.8039723012330500 4.4892404538350190 66 46 19
0.2207963718705173 0.9751074444590151 3.6165370916799993 74 50 12
-0.0228344155564076 1.4433183854565594 3.7971079725414976 241 209 148
-0.5756446699143050 -0.8721306079370021 3.7596766420349010 89 98 33
-0.9365921989793458 1.7524625765478974 4.4539126112317522 205 176 116
-1.1582313867252760 -1.0084179591417108 5.3584349165208991 108 103 63
0.7436299255399116 -1.4983168765451440 4.4962706237467485 101 87 74
1.1082239157545188 0.5081642733898294 3.5639935043410760 101 114 42
-1.6989389072792407 1.7395536945700878 5.0144029614814052 47 40 24
0.6443236436829498 -1.0794612973680651 3.4284684985535763 225 199 138
0.7438885931041938 -1.0679341849971451 3.4788453690536900 189 166 116
0.0572146702988340 1.5545063324299868 3.7227219704325027 40 28 2
-1.3824279542521842 1.6481076319935855 4.6064601786293116 135 117 71
0.3597735688769105 1.5431470471184208 3.8818553436908454 41 32 17
-1.5511922332941470 -2.1722945075242737 4.0609407166398199 151 151 87
0.7083588572825562 -0.3158888294190572 3.6180454400897708 72 96 18
