ply
format ascii 1.0
element vertex 703
property double x
property double y
property double z
property uchar red
property uchar green
property uchar blue
end_header
-0.3902341737375905 1.9006790261222652 4.0611367478064064 66 45 0
-0.8724620599859022 1.3130586821050811 4.4925437006573778 195 164 110
-0.3192568311889680 1.9127350626890813 4.1178858669081109 65 37 0
-2.6833313709451203 -2.1487569373365263 7.0028761930785173 171 147 103
-1.4746523891893102 1.6678697250683572 5.4827706803597289 122 92 40
-0.3192568311889680 1.9127350626890813 4.1178858669081109 65 37 0
-0.2971171680378173 1.8663570456126244 4.4260654300620894 169 135 63
1.2857790291358191 1.0503436441247587 4.6101295044065660 65 37 13
0.3017002842837125 1.5019271116054671 3.7827495204788484 157 129 66
0.6058818221258936 -1.0159022058885170 3.4199615432775872 220 195 138
-0.0590975614375072 -1.0887964810471789 3.5361025012078726 210 190 131
0.7605635678273913 1.8698629573853689 4.4574366183885576 154 127 82
-0.2971171680378173 1.8663570456126244 4.4260654300620894 169 135 63
0.1203902013830104 1.5264514698111307 3.7602302506853729 33 19 0
0.7605635678273913 1.8698629573853689 4.4574366183885576 154 127 82
-1.2878702305629324 1.5366595347508947 4.8906111986444758 156 135 80
0.7058186257417205 -1.0382168220975230 3.4459472165799729 247 227 177
0.7038809436956955 1.8827566877049564 4.4549074583819630 185 145 83
-1.3017943285982239 1.5348407021245074 4.8303553166605280 68 44 8
-0.4651628923553153 1.9021093851113533 4.0109253290069597 187 156 91
-0.4639174631715000 1.8715417383602315 4.3519536341179048 186 156 83
-1.3045634256687089 1.5366608316248886 4.8359882666288003 68 44 8
-1.3457185871600075 1.6096098591528518 4.9127261382361809 168 140 90
0.1762356081268529 1.5216009434057740 3.7364940580747721 73 49 1
-1.3250762094100885 1.7048143008501599 5.2595546416108974 179 149 97
-0.5116124433070515 1.9121876744135118 3.9796463935341664 144 121 67
-1.2522501419512910 1.5612219702249466 4.6302103793863942 56 31 0
-0.0831489272199798 1.9049063671842505 4.1258416069483506 165 131 67
-0.5204976835390366 1.8713103974810863 4.2315624989467171 159 130 72
-1.2687800889260377 1.5714825880008727 4.5975347809664031 128 103 72
-0.5210615776025281 1.8721633837661158 4.2315575415944338 162 136 75
0.1342738522413096 1.5014302315108647 3.6363128263410136 87 57 23
0.7656523462084560 1.8927621322105261 4.4023788699942896 82 55 10
0.4640308301529927 1.4817739906585152 3.8188179153847601 42 25 7
0.8176627866630032 -0.8996314528346568 4.4873888303535789 125 111 74
-3.0682443568205748 -2.5113098641674929 10.3163766280667275 137 117 80
-0.4913411335007401 1.8836880730644492 4.2101319587886525 73 51 12
-1.3597511442675065 1.7720793989769463 4.8927641423238999 94 79 50
-1.2595391241047560 1.7484150960844993 4.8341240725817434 105 92 58
-0.4636233216742872 1.9212549564359958 3.9054668302092157 86 57 1
-1.2393953065954249 1.7477626005150813 4.5947397879351675 60 40 3
0.1885896919663995 1.5236268214933075 3.6681708965019038 164 133 76
-1.2496011504826210 1.7675422852140139 4.6488206500513165 113 95 59
0.4898689179192964 1.4937656082373816 3.7172697040955671 135 111 63
0.2975396695196196 1.2800770245986537 3.7217842950014499 229 201 138
-0.1595260637101828 1.9254194936584814 3.9928850296027392 199 158 96
-0.5131474003797465 1.8754715492283192 4.1551032218968453 166 142 82
-0.1592376661135956 1.9246813835765242 3.9908215588677569 199 158 96
-0.5066152972381460 1.8685822636482707 4.3083273472319874 170 137 60
-0.7015647508179097 1.7794858271277330 4.4457517967155900 77 52 12
-0.5432466893031049 1.7800184189181554 4.4591808617559341 67 38 4
-0.4966723847369521 1.8514651906952468 4.2731479272768258 170 137 60
0.0894825398107285 1.4931274159041810 3.9309097047074699 81 64 12
0.5349289495060235 1.9168143411706884 4.2222276377770891 180 145 91
-0.5462771258120702 1.8620479266031758 4.5801426914192129 35 24 0
0.0945710707661794 1.5188222491147034 3.7317784193095624 116 91 50
-0.9170434263793243 0.0295369811200017 4.4694080115612946 92 73 41
0.5355438790656505 1.9152595755045170 4.2192808958523402 180 145 91
0.3382387375160752 -1.0973443030960326 5.4687920712416176 105 96 57
0.4595015368150678 1.5033540337884641 3.6959045057585165 57 41 18
0.1392939566733165 1.4892116916606717 3.9392700403383722 163 130 85
-0.1632295035573208 1.9293518503830556 3.9624581175507858 197 163 91
0.4592458320367488 1.5045024152755577 3.6981341806212296 57 41 18
-0.2819966006533694 1.7795165182934884 4.4635309898555757 93 65 18
0.8207513417732021 1.8851996456009974 4.2607504491927157 161 129 70
-0.8676099771663670 -0.8092690962648045 4.4347927735138688 121 113 66
0.2121717865789365 0.0231443338059894 3.5630482286777050 190 194 73
0.8075638401611306 1.7958090461482741 4.4965371085101626 238 208 146
0.1045171286801374 1.5017183825760776 3.9107217429801437 51 37 0
0.2060547175977732 0.0249407794748241 3.5859757288940082 185 190 70
0.1618846132361908 1.5209556656485084 3.7561130718039264 142 112 62
-0.4418902832638878 1.9565099406169002 3.8692682879589997 101 78 28
0.3498345030128819 1.5108428623192558 3.6195779663381957 179 147 90
0.3152431298488172 1.4913673241804783 3.9560899189666059 125 106 63
0.3152431298488172 1.4913673241804783 3.9560899189666059 125 106 63
0.3377090151460188 1.3905041652171524 3.5163623147370511 47 18 2
0.4833124803986940 1.8804010294995894 4.4791397744908981 152 117 63
0.3152431298488172 1.4913673241804783 3.9560899189666059 125 106 63
-1.0983834507320687 0.3058272216965385 4.5884527087042786 104 87 44
0.1245433635053562 1.5215522760484093 3.8837847893591428 44 21 0
-0.2608109075061406 -0.6313913291918272 3.6691570914519067 101 116 31
0.0356837054572780 1.4995875381378421 3.7872749748013952 34 16 0
0.8854454172573093 1.8060011503345959 4.4759795438535486 186 155 90
0.0271497490689094 -0.8833238573755577 4.9890372613419212 99 98 33
0.0359226490008762 1.4991652675722738 3.7863898122864663 36 14 1
-0.1732586945513981 -0.5974174968712185 3.6266506109785235 104 104 32
0.6078999377066922 1.9003440040114752 4.1521770011778232 173 142 78
0.2964854395991981 1.5111434791835570 3.9217148562539585 50 30 5
0.1384160535847378 1.5258236804701777 3.8606041287763713 77 57 24
0.8316721439386390 1.8068835850894294 4.3758792821747621 210 176 104
-2.2317859956081709 -0.5092858951678304 6.4624046962137891 111 101 32
-0.2295525578948481 1.8747468779975731 4.3976688254049101 179 141 66
-0.2220049549918035 1.9273814507070002 3.8578275271001004 145 106 41
-0.2220049549918035 1.9273814507070002 3.8578275271001004 145 106 41
-0.3746124314019987 1.9276170682495652 3.7899031403215382 92 62 28
0.4045347847444005 1.4990589517183015 3.8821378479033726 28 20 1
-0.9324536023812752 -0.0395654550288462 4.5061073827260083 66 47 14
0.7323305584376413 1.8797578568543356 4.4563510587864092 143 101 41
0.1506758797756357 -0.1486169329878735 3.5909453193229730 214 209 127
0.4579976508624702 1.4858500628183582 3.8377399421468490 48 27 6
0.5484836204745357 1.4625205279049136 3.7972460773851551 81 57 23
-1.0221027772974931 1.0336634117212613 4.6724033922288237 87 73 44
0.5608815698429601 1.4580934735907425 3.7817392031616603 229 188 124
-1.1014553641684686 1.0972361176090177 4.6605417087219028 82 59 17
0.7008308888601792 1.9142169639879860 4.1550300500709980 183 149 86
0.2757475129425813 0.8786968619233917 3.7185588459242607 229 205 141
-0.4705996131331259 1.9060756997114963 3.9992659888281450 94 62 21
0.4871027834593119 1.4894200467183198 3.7714644412623977 109 90 58
-1.6161612297188144 0.2609218212070978 5.0956148894766606 187 158 80
-1.4937886556149922 1.5854195613852440 5.5106659988600262 224 193 136
-0.8563517153658109 -1.6546394682633701 3.5281939357131509 43 33 24
0.3164346012263397 1.5368823833531380 3.8017564824083934 35 22 3
-1.5601336474850480 1.6543742852200707 5.6587632246019224 95 73 34
-0.9433651818761016 0.3343541953714991 4.5288898417444177 101 79 42
-1.2065038849242249 1.5011193732045407 4.7297383164651130 61 43 23
0.4979618833412732 1.4945827806479575 3.7690510474652208 42 30 6
0.4156612504653890 1.5016858887224673 3.7188022768374029 47 29 5
-1.2616581950216776 1.5352037097424078 4.8323825871790067 55 46 17
-0.4279130533916737 1.8888969783017422 4.2580535692321542 96 67 27
0.4364089686253366 -1.3232981150643541 2.9519408696646741 49 37 21
-1.2439713269166228 1.6383466483367664 4.8653832499219263 70 53 33
-0.7022243519984748 -1.5211539612044136 3.4217115696563263 223 208 149
-0.9320110726740000 -2.0146082221732615 4.3114899785625500 79 47 6
-0.2251486297663888 1.8840376092460833 4.3258530198766580 189 144 79
0.6990922568303979 -1.9844908287642720 4.4022666466727118 245 215 153
-0.9309351259502674 -2.0110720939504456 4.3068305908787083 79 47 6
-1.3989384458150609 -1.9509630492535308 4.3019117056499470 47 28 11
-0.9416877081953073 -2.0223529763675439 4.3291212283049179 79 47 6
-1.3214182112889639 1.6687069152922294 4.8443160538873382 174 149 108
-1.4493454232686569 -1.9991134306993312 4.3240882121267861 109 82 29
-0.5972637371619935 -1.5676826236425929 3.5509460721615707 52 43 10
-0.3022886837965952 1.8851441950161092 4.2860108089696167 195 155 85
-1.3194923323691159 1.6672345855882520 4.8405165246592441 158 142 91
-1.4497347619029533 -1.9560631446476311 4.3117570068293603 37 21 5
-0.6085349409922519 -1.5660388540297712 3.5676647551488392 111 110 53
-1.4497347619029533 -1.9560631446476311 4.3117570068293603 37 21 5
-0.0578397085479975 -1.5528720985189803 3.5617825467597459 38 20 0
-1.2761013928450424 1.6417656102244840 4.7207428331167129 55 35 11
-1.3978274194176059 0.5950524353943768 5.2546196031533956 79 62 34
0.4248114389975417 -1.2901428102022101 3.0196470324683666 209 186 132
-1.3144393013451809 1.6871715207881615 4.8611994821093267 57 46 18
-0.0465846376313643 -1.5352406673005550 3.5680174453745588 116 107 52
-0.0473578132677166 -1.5363344046277627 3.5705175468677273 130 125 70
0.7968016471501858 1.8922596955547355 4.2826031160105664 174 138 76
-0.4100149134258029 1.8499879997308886 4.1384672697833631 189 152 84
0.7504153201605112 -1.9318763871042148 4.4222594642804927 59 42 12
0.6600975493932812 -1.8937672605351712 4.4161405632126129 47 27 3
0.7968016471501858 1.8922596955547355 4.2826031160105664 174 138 76
-1.2554590839553204 1.7414351447172918 4.9421148045516023 58 41 11
-0.0476239397156676 -1.5257314683403627 3.5760429777158333 109 108 43
-0.8924159535410505 1.7717727206562230 4.4293957630484693 109 85 47
0.2699347612743021 1.4707333197681971 3.5614844918762376 80 46 11
-0.9824146460855363 0.5138928239601085 4.5548366285354751 152 131 78
0.6601821253906488 -1.8815363709944615 4.4274737408980833 48 27 8
0.1832161597172561 1.5331418187277792 3.6611701118857432 104 77 30
0.8760094124088442 -1.3241182521922323 3.5361554317545214 119 125 61
0.2391307553534809 1.5021644072624867 3.6032129357946610 177 113 65
-1.4514455886223869 -1.5429979577445676 4.3601606260634744 40 18 4
0.7463222075497645 -1.8529421184425812 4.4116408535324450 68 37 17
0.0255686472327393 1.6081803021951675 3.7306133038965648 168 132 54
0.7452538130907258 -1.8460166862410698 4.4349215300697784 61 32 14
-1.4253399640148297 -1.4398272379572412 4.3649040742659961 109 80 20
0.2673094597444770 1.4907820065046409 3.5503528300648801 83 51 10
-1.4253399640148297 -1.4398272379572412 4.3649040742659961 109 80 20
0.3348213545667868 1.4716137929555277 4.0582146821662226 38 20 0
-0.3483985146297326 -1.4708976772565450 4.4211012145090880 210 187 133
0.8103774935941912 1.8213772646154367 4.5202522398025522 93 69 25
0.0176941628547007 1.4808992375535566 3.8606020173941085 45 24 0
-0.9385212909961788 -1.4156605230549615 4.3807009099187439 57 23 0
0.8994776155264455 1.7819181629541867 4.4347835244714640 73 44 14
0.4334060825437128 1.4771687484348901 4.0068803431641653 35 18 0
-0.9385212909961788 -1.4156605230549615 4.3807009099187439 57 23 0
-0.5175120885788190 1.8483397106784383 4.5089808678157732 97 77 40
0.6575381658351300 -1.8096348736821517 4.4224615509063252 39 22 2
-0.5473141612644756 1.9019676446218328 4.5887452108523004 58 38 13
0.0505246961240466 1.4904873556411908 3.8082070548772817 153 124 80
0.4003780429359094 1.4947641864790566 3.9486442898448644 92 68 32
0.7434615870689715 -1.7632480935452466 4.4450544248434163 54 32 8
0.0638791410433722 1.4999900469238945 3.8019767415490442 33 18 0
0.0640029566686071 1.4998760108692537 3.8019612350487515 33 18 0
0.7104302319433404 -2.0179363228034735 4.3970308135953102 236 205 150
-1.3860271067692436 1.5666853261487774 5.0204121916543620 67 53 18
0.7431527955568560 -1.7394224387708579 4.4315261900088014 58 32 5
0.7059216890213821 1.8503409649571783 4.4788938058613459 120 85 45
0.6990589743503246 -2.0057261962805617 4.4139712737311738 66 31 0
0.0504466360142690 1.4990007078947480 3.7902850361910483 42 23 8
0.6978449327921169 -2.0046657161473935 4.4108924379117669 66 31 0
0.6570336450176147 -1.7272895352462576 4.4300609646863327 45 29 4
-0.5322682376146912 1.8579965494880630 4.3703040815169709 156 126 72
-1.3009351852447602 1.5333077150713288 4.8681414864654355 162 134 87
0.7386355171774881 1.8763287570621496 4.5301762794353362 132 100 51
0.7392639238387173 1.8638078729773255 4.5025177867183306 128 100 52
0.1859429889896884 1.5352628447535985 3.8866814908432961 40 25 4
-0.4125642338263980 -1.3933891008478141 3.5740901844719639 97 109 47
0.6558867515520012 -1.7110693685906198 4.4369549784797950 50 34 9
-1.4540112039663924 -1.6936407571591203 4.3488895717364882 44 31 14
-0.2894871729089555 1.8968620516611705 4.1343802587537866 196 156 86
0.8070873551728804 -1.7141696998923117 4.4523302594979262 47 30 10
0.8070873551728804 -1.7141696998923117 4.4523302594979262 47 30 10
-1.2630760502250424 1.6303208239699747 4.8855376184260617 132 110 73
0.8688894535241419 -1.2609586561063328 3.4115605031368230 116 123 56
0.6553630140307203 -1.6943567653819567 4.4379917298477443 42 20 6
-0.2887868093261091 1.8966835179744064 4.1339974136376307 196 156 86
-0.5259596754221849 -1.6816566202145946 4.4310154672659250 33 21 0
-1.3311012572100653 1.7100461398366171 4.8454427268883364 139 120 77
-0.5253318996454365 -1.6811411674063390 4.4279467671858370 33 21 0
0.7783839832481934 1.8723041504503206 4.5258744040241403 57 39 19
-1.4223524079934116 -1.5048837396650876 4.3767911842892948 56 43 26
0.8465756288300894 -1.3319049478123843 3.5949446171429442 63 54 15
0.5561093392777273 1.8883686355384035 4.4557064984994410 169 132 62
-0.9339470888284119 1.7027855237600329 4.4328608844530981 235 206 150
-1.3448827683474707 -1.5028407979492628 4.3791982430110128 91 77 64
-0.5237274893095223 -1.6451931007154312 4.4270085535946508 33 21 0
0.5561093392777273 1.8883686355384035 4.4557064984994410 169 132 62
0.6553375820804784 -1.6444006804382192 4.4399041211574559 40 23 7
0.7531848628034916 1.8867566910645752 4.5137060267923363 75 41 16
-1.1162070331186331 -1.4971853360729750 4.3842401121568146 83 67 52
-1.4497695648915927 -1.5730841109837117 4.3536395905092879 39 22 2
-1.0401861676020445 -1.4943457287746313 4.3849742327703671 55 35 26
-0.9684097993112706 -1.4960045207130932 4.3944198570941815 99 78 57
-0.1365628198104265 1.9097801861035786 4.1569884167247988 180 151 75
0.3490669741747863 1.4635170742755732 4.0700560162523232 109 87 50
0.6542217066073361 -1.5944572889027187 4.4439263914743261 33 18 0
0.3796269274249166 1.4680416467401982 4.0553918724349396 101 81 44
-0.8176127500619151 -1.4925776689474051 4.3985324764166513 69 54 35
-0.5557915545886867 1.7782136139578328 4.4220097499167359 206 176 103
0.3643659159850701 1.4736297937301746 4.0494060726929559 31 13 1
-0.1822367361283954 -1.1296180104117086 3.6301808416151680 212 185 132
0.4071986756661606 1.4663775542579571 4.0337129629570851 109 85 51
0.4283330928399240 1.4652870415482762 4.0189918845028405 101 79 42
-0.2141757987312538 1.9109286105714101 4.1155291749057223 184 153 86
0.0677418255764843 1.4948008822962608 3.9128825861834460 83 57 22
-0.2141313930238998 1.9108635670434879 4.1156173739699717 184 153 86
0.4514140559890500 1.4685050213897028 4.0025327658661887 108 90 54
0.6496460651835585 1.8600286813446816 4.3615014537468904 185 140 72
0.6496460651835585 1.8600286813446816 4.3615014537468904 185 140 72
0.1692266983567313 1.4918621471356521 3.9235458458877766 37 23 0
-0.5121041173028126 1.9076338797680887 4.6418631497960821 61 46 17
0.3207413166460234 1.4261924723252717 3.8054654607084690 42 26 0
0.7861130407515107 1.8777532629329656 4.4160165894811234 152 116 54
-0.5458441393840453 1.8538641879474671 4.4860528956986148 48 29 0
0.7867222403398942 1.8806332027324093 4.4220605075272035 152 116 54
0.4477417094904058 1.4809746127273182 3.9901879256802157 35 24 4
0.0733129793356680 1.4971660408342942 3.8381998358642271 41 30 8
0.9059160717777505 1.8021401023561194 4.2842008193289551 146 110 50
0.0153556523883805 1.4896444896863117 3.7898336429221589 30 12 0
0.7117839953180991 1.8873148956042713 4.3800584482410940 188 139 73
0.7095132216978527 1.8945994815348686 4.3932591881604157 188 139 73
-0.4440328911820637 1.9391393229159315 4.6672851960026911 86 62 36
0.7177503860568011 1.9007010619898010 4.3218935674460317 193 153 81
0.7177503860568011 1.9007010619898010 4.3218935674460317 193 153 81
-0.3592625777019509 1.8630138963321758 4.4602968911479692 182 149 82
-0.3592730071867900 1.8629214608889797 4.4595198353961010 182 149 82
-0.5093939126251683 1.8627465219053758 4.3774861896251007 156 124 63
0.7939222069445635 1.8557034980502380 4.2449011330398854 70 55 24
-0.5099482967488873 1.8631943538925702 4.3772863638981088 156 124 63
0.1575412341260340 1.5294715695302878 3.8682051590595350 63 43 18
0.8462758134768957 1.8228036543147881 4.1739608001451360 213 174 107
0.5672914549633936 1.9023223063368682 4.2200194182061646 181 147 75
0.5672914549633936 1.9023223063368682 4.2200194182061646 181 147 75
0.7142311805837626 1.8947254499443531 4.2252483218660952 181 143 81
0.7132780213686452 1.9015733396409928 4.2360204509683221 181 143 81
0.7393502563895767 1.9041020046786841 4.2492578057091901 178 140 77
0.7393502563895767 1.9041020046786841 4.2492578057091901 178 140 77
0.5714160819037086 1.9088611451324535 4.1496710755947035 165 131 67
0.5714160819037086 1.9088611451324535 4.1496710755947035 165 131 67
0.0486450836789989 1.5102676150245176 3.7618836205144128 132 109 57
0.1139636574669801 1.5258127133120567 3.8462820897824135 128 105 53
0.1142472400272005 1.5264988894094282 3.8481356879654482 128 105 53
0.1292583100767140 1.5255304052348289 3.7753162615152940 51 33 9
0.2424030722158146 -0.6098489249800164 3.5772846180734428 232 207 141
-0.5292585878379924 1.8662650428567782 4.3450827593751411 49 32 6
-0.5582447883793454 1.9091990140342898 4.4344201442791711 49 32 6
0.6765614622708731 -2.0208402419247640 4.4076967175905386 235 206 146
-0.7856157569245444 -1.5819820955841755 3.5213737654456909 236 204 147
0.5275940795251077 1.5138716739657174 3.9098844034208464 59 47 31
-0.3600864361982627 1.8835895105021287 4.3743189461451299 94 77 47
-0.1781278966791838 -0.5402345559003137 3.6440939567202841 124 135 59
0.1166583109167002 1.4986369050237229 3.6387833262638192 47 29 7
-0.5303905384896194 1.8848105396646748 4.2994154229263515 59 33 8
-0.5420353361070327 2.0118958231516082 4.5955066361250410 66 47 17
0.5657923869698053 1.4622196826927893 3.7678447147861371 209 173 115
0.1547870956944651 -0.0635735983821393 3.5814584158857508 120 133 28
0.5656108867238299 1.4601637453423106 3.7678460691177413 209 173 115
-0.3411316303706418 -0.6482512068165401 3.5674992421546787 59 75 10
0.5246780766916176 1.6088823760368176 3.9051147651990048 141 115 64
0.1220390373630270 1.5283406696799935 3.7258021147193765 161 131 69
0.6518530326367542 -1.9257855947161722 4.4224370822289947 100 82 60
0.0516774371385070 1.5205672300309461 3.6632340806506258 67 51 28
-0.5026305284133746 1.8767044246661115 4.2372903358065059 171 137 74
1.2534359095385144 1.7968230526335152 4.4964089308938098 247 215 158
-0.8011397521620267 -0.5369481572481833 4.4638674326072199 244 218 157
1.2534359095385144 1.7968230526335152 4.4964089308938098 247 215 158
0.9540321985845336 -1.2894796055009170 3.2750044953526740 119 122 65
-0.5021470339982428 1.8620010531153062 4.1707408797464840 96 71 41
0.5251761694817251 1.6619865178640882 3.8544710454922133 172 138 75
-0.4973561020697407 1.8808417762638208 4.1628035614348020 178 149 79
-0.0819708946459255 0.2782113298763584 3.5584838317077536 107 123 35
0.1487213248045011 -0.4507133531431994 3.5712487069718550 58 77 0
0.5983991499071299 0.5742776865968936 3.7126531331839505 116 136 39
-1.4369573317477717 -1.4986027371875177 4.3510702114660074 58 39 24
-1.4369573317477717 -1.4986027371875177 4.3510702114660074 58 39 24
-0.2964750182110208 1.8918211622170649 4.2127161023321413 201 161 91
-1.4677108988343592 1.2857004628226969 5.5658413778417675 196 169 124
-1.7721373064423376 1.4573590516814638 6.2285066370960900 196 169 124
-1.1571023726097216 -1.5045695038234337 4.3960354337838572 29 13 0
-1.5569728829204190 1.3786347998808135 5.6181612642101797 210 185 128
-0.9198904134010053 -1.4906201751943888 4.3742842515048679 34 17 9
-0.4898311633049839 1.8815508320470917 4.0794506627292790 177 147 87
-0.4890705662383037 1.8744663363434022 4.0655651957042478 176 139 71
0.1831613513433460 0.9625431161086632 3.6621609706687157 228 210 144
-0.4234450816298116 1.8989327653798147 4.1445501570569672 202 154 82
-1.2605108083172913 1.5394552418708132 4.6008644720084506 191 168 101
0.1272693904364903 -1.1674774345396963 3.5455167055225600 42 31 13
-1.3750074287220411 1.6652507825610545 4.9373732556968051 146 121 80
0.5533120788237218 1.8784076555100324 4.4865985515413014 106 82 58
-0.5329788766233166 1.9393418292073079 4.1507293771521496 76 55 24
-1.2548383546664563 0.3461882963718259 4.5868877930581835 97 73 37
-0.5329788766233166 1.9393418292073079 4.1507293771521496 76 55 24
0.4119613289019490 -1.3151344304843222 3.0065890960487636 100 115 30
-0.4181549388195204 1.7733308193982402 4.4698990236387557 245 211 147
-1.2569313041764782 0.3466256274309914 4.5895652753169465 97 73 37
0.4248181262961715 -1.4812761077729828 4.4554818004583705 30 15 0
-0.3704977779679507 1.9088446764019333 4.1166512943373448 194 157 87
0.1544577435758389 1.5198373279032731 3.9081230133317897 116 98 52
-0.4871583782711682 1.8943173591381279 4.0211244277885179 172 138 67
-0.4885697484368251 1.8967117891697658 4.0245541820070372 172 138 67
0.1555997671891568 1.5196751386601641 3.9082550089032004 116 98 52
0.2805784237600856 0.8628378160331035 3.7139768995397535 229 205 143
-0.9250785257582562 1.2959208845816850 4.4950124228890873 247 216 159
-0.0556711888634808 -1.0752000397774368 3.5432654473721641 55 76 7
0.2298914615994253 0.9203031200281631 3.6106990465843380 228 204 140
0.2454830885188713 0.9003608981898445 3.5385018199050977 228 204 140
-1.3040588314997132 1.6051174689555734 4.9856916810057452 164 147 95
-0.3978993394156044 2.0838721101268964 4.4448925825370607 64 39 17
-1.3297399480295407 1.7282430970817726 5.2015486386957361 194 162 105
0.2330461235094467 1.0583519710599660 3.6774266093915018 76 50 17
-1.0499547479077225 1.5608107450423356 4.6557396121338597 59 44 23
0.7186822922463780 1.8610139054573505 4.3718085824223678 105 84 53
0.8367243643276719 0.5213375814220449 3.6199456988608842 221 192 132
0.1485677475207050 1.4526277722172449 3.9699159588804034 54 45 28
-0.3619054951560075 1.9309679870262437 4.0368878953481317 69 47 6
-0.9118624468094542 0.9511439661229646 4.4984291428304903 232 201 146
0.0901762617817028 1.4774021712401193 3.9845824269880459 43 26 10
-0.5933157752848722 -0.8765774752576899 3.7843084201669335 82 99 28
-0.2801959540995585 -2.3205546171845328 4.8991925707636286 25 11 8
0.6825343850260863 -2.0201679459679975 4.4047732515729523 233 204 148
0.4329672929835758 -0.8028238369742278 3.4568630293807385 165 148 92
0.8128757440140401 1.8450515615007319 4.3101309187792491 74 53 26
0.7112620877721073 1.8810400464764299 4.3214523357407835 109 85 49
0.7250048380381293 1.7683466147642586 4.0955635079550810 109 85 49
0.7287396636422767 -1.9106821273602357 4.4232416667359615 236 208 145
-1.3749900821941876 -1.5018426979872779 4.3694622962875682 53 41 27
-1.3021683567826319 -1.5021540346011688 4.3756331483682143 32 15 7
-0.1978768436887144 1.9133156200446628 3.9548920183215350 192 152 80
-1.0756941992709543 -1.4971589785380210 4.3828385301063530 24 10 0
-0.2031989160140238 1.9234327533438922 3.9730962968328751 192 152 80
0.8199201145963234 1.8444971323453199 4.2261789547488409 88 57 28
-0.9949789673426180 -1.4926023988186430 4.3765671454166597 35 16 2
-0.1819029403850834 1.9334523613781189 3.9888441063140352 190 151 74
-0.8938962160688574 -1.4944882972888387 4.3950958861490310 33 19 6
0.7156787777795752 1.9090550278435738 4.2979291548378731 110 86 52
-1.2618142631560743 1.6966656548245280 4.9184947481165171 142 121 68
-0.7030915820304269 -1.4912059668636808 4.4019927534049712 88 75 58
-0.1285431837982776 1.9373932495574324 3.9568269469180812 186 149 81
0.8267910669036441 1.8357574631794018 4.1307285575981281 120 93 46
0.3080299926898655 1.2693575198926681 3.7205322084578007 229 200 142
-0.0909067257311321 -1.1519653215850369 3.4819368729389253 18 5 0
-0.1976893621928948 1.9313017909021262 3.9072523610378354 206 170 92
-0.0606535640044531 -1.1776939796563819 3.5609960307325230 39 27 15
0.6704337770980893 1.9101224987429080 4.2078310652378494 180 139 73
0.1275966406372290 1.4860637080261450 3.9485247224832580 130 104 53
0.0406335400194180 1.4861208083561634 3.8273341530521630 145 114 67
0.5983354874120047 1.9064540795672815 4.1488135687282952 162 128 56
0.5983354874120047 1.9064540795672815 4.1488135687282952 168 129 64
0.6664855221146709 -1.1143522010626987 3.4409822348437653 22 6 0
0.5162869776684114 1.7794261633564268 3.8567981011926755 150 123 70
0.7991183334744375 1.8520699602553663 4.1153792206136721 186 148 75
0.7711791843510405 -1.0873235074256256 3.4186812763751697 235 201 156
-0.0225872780124638 -0.9952606505167233 3.5486947010620726 215 205 143
0.2105495301050139 1.1031089010755646 3.6962511130680604 233 204 144
-0.8987840660149526 -1.1076972528546913 4.2837269484336709 141 132 89
-0.1838191877776364 0.1953085466377295 3.4288358071839546 75 98 16
-0.1858415142957416 0.1961681776684762 3.4388139219725589 75 98 16
0.3055534041674127 0.2104890621984361 3.6625137884268630 111 127 28
0.4920403518574092 -0.9028581044173711 3.4491711908160760 75 100 16
0.3193454811350940 1.2498163434620626 3.7030749231888511 233 203 143
-0.5323279922469754 -0.8409326106162158 3.4933637705096827 187 164 110
0.2920293723180734 -1.3249724840058248 3.1232626540777018 48 35 16
0.2606757920303693 0.2407893826809241 3.6481599050598001 229 210 142
-0.9060619675212452 0.4998442993169175 4.5109250208204825 230 201 143
-0.0839124247007542 0.2918232244910502 3.5153959855619696 103 122 32
0.7664382008645035 -1.9138500272912178 4.4176586242740434 53 39 12
0.3882947644246427 -0.8382581438247667 3.4526304967036743 148 136 96
-1.4276845654135850 -1.5100930543177276 4.3543902518655973 83 71 47
-0.6914566722058652 -0.8128605887902535 3.6442493422695850 225 195 133
-1.2965351840238855 -1.5111695145094892 4.3765431813920790 88 75 56
0.0799683352078892 1.5088312770467076 3.8442265126432207 81 65 40
-0.0849772871917523 0.2925450367796606 3.5177452040129422 103 122 32
-0.8445875364564754 -1.4969354495129745 4.3864700262837069 36 23 6
0.9145075620737304 1.7948777433708791 4.4292471158261177 82 63 33
-0.1284556118527141 -1.0998536517271131 3.6304680350187879 73 91 15
0.2403180264624632 0.5613268605296247 3.6700476145190510 138 130 32
0.3555042247050454 -1.4839070565108754 4.4419272656561244 47 36 14
-0.2767484125357106 -2.3430222334492297 4.9020696328232987 22 11 5
0.6121655777583190 0.5894686412001056 3.7011211356135041 118 140 42
-0.9088966857505146 1.1488788494489863 4.4889509102773655 236 204 147
-0.9649641071185324 -0.9059640064994746 3.6777246484324104 41 58 6
0.6125082823667343 0.5911035707173318 3.6971717666860742 118 140 42
-0.9061474092531135 1.2350281742263316 4.4593557516013362 220 189 132
-0.5040582907591420 -1.5084752729711395 3.4602011211753627 17 6 0
-0.1699543837091910 -0.9810147084834541 3.6985560403382447 229 200 144
0.2557914480038609 0.9160156208586133 3.6908139405828968 110 83 36
-0.2914703031641337 -1.2649172384743135 3.6085439776459292 106 124 38
-0.8731083608578312 -0.7742892503304684 4.4448148141559169 224 200 140
-0.0714910584091141 -0.9578363145793091 3.5935992056288923 81 101 29
-1.4993879127844636 1.6227491077542509 5.3436847063376192 165 135 83
-1.2221062458714589 1.7042024015045749 4.6162138783407842 50 35 16
0.1522693845133578 -0.6112458701572638 3.4971465150267229 61 84 6
0.2787707554101828 -0.6445681770492641 3.6091178184660397 113 104 73
-0.5510750297955713 1.8881213833689479 4.3460656223514569 152 121 67
-0.5380435647771753 1.8228452929974488 4.4986561702400838 56 42 15
0.3620284032073384 1.4003404993548749 3.5402166594305076 35 24 6
-0.2181630021827322 -0.5889091020344426 3.6876279138724648 105 119 34
0.3148666934164361 1.3217876389838501 3.4840076956148800 206 176 124
-0.2218347699392499 -0.5909581661920681 3.6942055059411123 105 119 34
0.3149632698620428 1.3213298202745802 3.4820054203471069 206 176 124
0.7911067555426403 1.8317464709110776 4.4894839375183890 60 42 22
0.4249564396872781 -0.5945830906203038 3.6100129722512344 236 206 142
0.3777065440775761 1.4941148003223070 3.6018510739665111 124 97 50
-0.5031904859175861 1.8731323627826633 3.9454662053954186 115 92 48
-1.3133881126721931 1.5809436317625709 4.7485692163425570 130 108 59
-0.4829995756125348 1.8640164471428184 3.7852048289260183 125 103 54
-0.0797004965112260 -1.1381866550118400 3.5680054022838994 217 193 133
-0.6534337337854186 -1.6627762079943968 3.6470645672890480 236 207 147
-0.3629601188591258 -1.2300906280282180 3.6114790985681489 73 61 39
0.2880308765776469 -1.3538950982397646 3.0833836432876507 235 206 146
-0.8635959481625751 1.6999311556055134 4.4777490142503815 236 204 143
-0.5071280939032249 -0.7725756138589764 3.5688953235550454 59 81 9
0.5621119272543702 1.6497302089265444 3.8480989177637666 173 138 80
0.2483004872453267 1.3545138572695483 3.7941022852832820 48 19 13
0.7202890060978835 -0.3318325157616041 3.5707977693628554 76 102 11
0.7202890060978835 -0.3318325157616041 3.5707977693628554 76 102 11
0.1306171239164265 -0.2247879513741645 3.6109341719420995 227 199 136
0.2483004872453267 1.3545138572695483 3.7941022852832820 48 19 13
0.1525938648537176 -0.4980251024700020 3.5444355913997128 82 102 13
0.2368231366570135 0.3355859095649529 3.6494965413314717 132 145 29
0.2373492753067942 0.3371586541815651 3.6519651632303143 132 145 29
0.2352128902117124 0.6737039200537105 3.6826418961352898 138 128 39
0.8474393254422136 1.7981668249520486 4.6100477449967805 245 209 147
0.1045437155375681 0.3286642739690959 3.6057384011961728 233 204 144
-0.8984974150030006 -1.0373196047853028 4.8837456913700272 91 100 45
-0.9386308013090057 1.7604788318199696 4.6600564747435351 231 203 140
-0.7514690299868020 -0.8919168313236027 3.5955681191459701 65 87 14
0.4424738307821728 1.3933524317221544 3.7016956224849791 46 34 10
-0.8984974150030006 -1.0373196047853028 4.8837456913700272 91 100 45
-0.0261369133302243 -0.5456179843710752 3.5530095615429116 225 199 138
0.5466208551537788 -0.4660585069566393 3.5556435234889472 226 200 139
-0.7816305876899780 -1.3827742789472079 4.6630497441013175 246 215 158
-0.6061245778913402 -2.2351453370167911 4.2508105457570977 225 204 159
0.3269679388038804 1.4618686031127219 3.5232565063042434 184 153 98
-0.4680966588567735 1.8603971545430356 4.4547347823285950 55 36 21
-0.4710475967991916 1.8956501243637485 4.0824144754123450 178 146 85
-0.4706328860321847 1.8954462869262654 4.0817278469147240 178 146 85
-0.9374115886201547 1.0416472785599251 4.5197009236370640 216 187 131
0.5760517800915431 1.8800655662363084 4.5297889564323341 139 101 62
0.3387652785127384 -1.3733686360630781 3.0688449642570323 234 208 157
-0.3936268026163725 1.9120496996779035 4.0436492311607291 80 48 23
-1.4993275970206117 -1.9351214891397261 4.2952088940728093 224 193 139
-1.2523008760257188 1.6579196252392328 4.8648809287831360 157 135 88
-2.0685125765104493 -2.5719303155308029 12.5125944911494589 126 117 78
0.7706985163116558 -1.8864580784104341 4.4450937523247642 64 48 23
0.7706985163116558 -1.8864580784104341 4.4450937523247642 64 48 23
0.2748773930374038 1.4703313024407507 4.0736651533090642 40 19 0
0.6599454174653185 -1.8611890370165096 4.4229631812159607 41 22 5
-0.0833183148677291 -1.5719586480835932 5.3070238686465112 240 215 151
-0.4080500505027471 1.7810817595909829 4.4701471362349849 236 205 151
-0.8174101457688279 -0.7964051011987826 4.4465563919659390 215 194 139
-1.1567170566512344 2.0273086639910392 4.5949844996030507 95 77 53
0.4736973271728631 1.4746181774250675 3.8611315739173420 143 101 61
-0.8360304434944318 -0.7979094513408796 4.4405005738961627 225 192 139
0.4950455132829695 1.4466424761063132 3.8016478826180746 143 101 61
-0.4729312314663618 -2.2802345528563515 4.2970126223509579 227 198 138
0.0091657458772076 1.4871665327493622 3.7699828541284517 113 94 51
-1.5083551421945656 -2.0053466062183030 4.3089105571442596 205 170 114
-0.4809708993453153 1.8603222731500897 4.3708603118404845 50 21 3
-0.4020293799448870 1.8584145909985708 4.4047120699850542 79 46 1
0.3086454744930686 1.5347280045951464 3.6987941413570660 150 128 78
0.1460012193732484 -0.1587292651288048 3.6035710435126913 224 205 137
0.4618082426113553 1.4629394157801618 3.8095507653543725 147 98 58
0.4618082426113553 1.4629394157801618 3.8095507653543725 147 98 58
0.4822079289573025 1.4811373207888510 3.8511803647608365 44 14 3
0.5311461178254374 1.4616408136084329 3.8065524890038676 36 14 0
-1.5030189048146869 -1.9323686443775134 4.3196451635144362 120 90 40
-1.4975160177543703 -1.9283260906274589 4.3118492296880540 110 80 30
0.2815622390657628 1.5081903743605696 3.7553067728587699 156 130 69
0.6555207656368052 -1.6597239638333972 4.4351126737799307 40 22 2
0.1469755601507206 1.5132093153661066 3.6399813699622374 86 56 22
-0.0465621136056791 -1.5240203676976025 3.5727473066282243 109 108 43
-0.4827324381093792 1.8831265310246175 4.1813351139973101 182 153 85
0.4585728108402234 1.4988757851236063 3.7441474842350004 67 48 18
-0.2595787739515883 -1.2569241296228773 3.6244235007189789 114 124 51
-0.2525815391531817 0.1825474787247330 3.4183544196046700 232 203 143
-1.4783719663603345 -1.4315490740756116 4.3685243986538174 98 69 13
-1.4783719663603345 -1.4315490740756116 4.3685243986538174 98 69 13
-0.2059968182992874 -1.2017339582792586 3.7456422674397460 203 183 124
-0.8795822717968202 1.0027645940659480 4.3366407034014758 76 59 31
0.6807870931223038 -1.1086636521105495 3.4724644522387504 228 207 154
-1.3150873414767188 1.7047619551778355 4.7794940971034841 136 118 78
0.1119911906701124 1.4677865903013676 4.0081135184523911 39 27 5
-0.9352440386536528 1.2604042279033927 4.4988970271346469 220 189 134
0.2974678944063356 1.4695309409169139 4.0584732156173349 52 32 5
-1.3533099571291949 1.6451646377855720 5.1954121288283686 183 161 104
0.2599325323904448 1.4865337637433873 4.0233413000611131 45 30 7
0.2315185976325287 0.9574922337963855 3.6389626871640144 228 202 141
-0.2184259168783068 1.9059522514466238 4.1947901032452544 192 152 82
-0.2182310013899727 1.9019820473963660 4.1864621237049118 187 152 84
-0.6896827059829007 1.7703385166500956 4.4588417533864870 251 213 164
-0.1365628198104265 1.9097801861035786 4.1569884167247988 180 151 75
-0.4094954562323098 1.9031981316982274 3.9891710479653253 192 153 84
0.0478819826860221 1.4840935972806439 3.8563503757103272 158 135 83
-1.1959004864586806 -1.5026034583362005 4.3892415035587584 87 61 46
-0.2232173073026762 1.9044731815272782 4.0602325279202098 110 80 44
-0.1345871148198686 1.9181772812199225 4.0890565390994338 189 151 88
0.7938135728922643 1.8171235355164426 4.3286460407436369 46 24 11
-0.0312740768350918 -1.0541779240671432 3.5510700338806900 252 239 171
-1.4717405364293188 -1.9435651204580429 4.3028179775487789 216 187 131
0.2718302016782792 0.9270353839566958 3.7095253973324174 85 64 17
-0.5481264422099905 -1.9394854900557759 4.3587990531563365 98 85 69
0.3323196104698214 -1.0723891746034289 5.5073702926459100 189 164 107
-0.4689069704273632 -1.9313049434905816 4.3515656046049473 113 100 81
-0.4207426920591398 1.9063393472241001 4.0758561927529264 190 158 85
-0.7070610018278514 -0.9441683610009167 3.5846982422352509 70 87 16
-0.4207426920591398 1.9063393472241001 4.0758561927529264 190 158 85
-0.3472506122570357 1.9166390746998627 4.0880225055653296 61 44 24
-0.3472506122570357 1.9166390746998627 4.0880225055653296 61 44 24
-0.4808992026486265 1.9050141649998804 3.9594846587691896 177 144 75
-0.5125419202819516 1.9420146307759210 4.5393408206454202 56 29 12
0.1277466544447030 -0.0704581680714624 3.5932051805083458 220 199 132
0.1090941820485417 -1.0905494324170208 5.6465377875557525 112 115 58
0.4505548819905840 1.4763289902991987 3.8964637168795240 42 36 12
-0.3578835572924071 1.9088162500000012 3.9952240068479568 69 47 6
0.2901540413710295 -1.0363294553024018 3.1887516590701330 76 63 44
-1.2248870433506749 -1.5002434472727908 4.3781489220319010 15 1 0
-1.1642700191725084 -1.5063677790435006 4.3982532193056016 31 10 7
-0.4028198385288610 1.9126819831865107 4.3434730287124985 101 75 42
0.7201357188986495 -1.1128241752090451 3.4353722635726185 96 108 34
-0.0104996567782637 -1.5309854511892695 3.5377421467389190 86 75 55
1.0112721550545578 0.5169183880606745 3.6202763028544402 220 191 133
-1.4082254176898668 -1.4771638136784915 4.3808433945490934 234 200 137
0.4003531285301691 -0.9850285861998874 3.3300952210733077 251 232 166
-0.2813387779374542 1.9240030585451819 3.9387537689693741 196 162 91
0.2614554199895954 0.7533299322250467 3.2250747075999699 102 115 25
-1.2767178922861222 1.5620347108206598 4.8334888631963091 77 63 34
0.0685601568543657 1.5022477509421370 3.9664756476892853 145 120 66
-0.6561726831772735 -0.9096609845372167 3.7019401767708384 206 175 121
0.2101353335620260 1.2942217238477265 4.0959850301647025 231 202 146
-0.6289673533321782 1.7697626003339169 4.4112775943907518 88 73 44
0.2757219751283494 -1.4442960097554263 5.9634036013371245 211 176 120
0.4233653921534518 1.5044486100720333 3.8168799502187838 38 24 11
-0.8488792054796108 1.7590008640196440 4.4497378320913343 230 199 142
0.2586179968951208 -1.0325324645291374 3.2804967308624882 190 168 110
-0.6653822995125986 -2.2582169250972144 5.0512597783379460 43 30 14
0.4252405187195074 -1.0199233491009605 3.2486181255848292 218 192 133
0.5129314506124659 -1.9239803829493454 4.4216202089576164 56 44 22
-1.0185686791552579 0.4577421656919149 4.7219011321877637 229 198 141
-0.3128526007234345 -1.1516503711215802 3.4507702765893637 32 21 3
-0.5250131809876192 1.8468484091164212 4.1527146968118549 118 91 48
0.4309940819280537 -1.0643904049442490 3.2633244604741565 41 28 9
0.9214398063433741 1.8017337182026112 4.4289257190646714 83 62 31
0.4318515447874514 0.7276493470504056 3.7162245059738583 123 143 48
0.4318515447874514 0.7276493470504056 3.7162245059738583 123 143 48
0.6356042560806969 -1.9257654230552350 4.4483239225535067 142 128 102
0.2195847486843666 0.8890371335988821 3.5140821882829973 72 63 8
0.6356042560806969 -1.9257654230552350 4.4483239225535067 142 128 102
-0.9150746351807117 -1.4683554663818281 4.4504720549266183 230 201 143
0.2247823992662226 1.4124222616667002 4.1350131484797243 229 200 140
0.0130580048584478 1.4517894431874725 3.8416094165770018 49 39 12
0.0008886553763742 -0.5990419905822889 3.5527486611559045 229 203 142
0.4026757551790413 -0.9820010010233698 5.4572771335145456 110 115 49
-1.4209242517467702 0.2298661548000950 4.9257044709662576 253 227 152
0.2783835588091563 -0.5669233661574189 3.5576690293102078 233 205 142
0.3228531276209764 -0.9595485881330471 3.3486271548188107 79 103 5
-0.1542262742643897 -1.2429976532327838 3.5674826332251452 44 31 14
-1.3037314294966666 1.5923097966955242 4.6100433132094771 164 146 100
-1.5203204539726460 -1.7282314975249906 4.3307724865203223 121 90 33
-1.2615799611881555 1.7380952257683668 4.9672489742464370 160 138 99
-1.5246672611279475 -1.9567738379848585 4.3021149782319377 114 90 46
0.2460046073153292 1.1916360767264531 3.9410513522233535 104 110 108
0.2460046073153292 1.1916360767264531 3.9410513522233535 104 110 108
-1.3096422528087308 1.7157036494789872 4.6009784279659849 36 14 0
-1.5119219666517205 -1.5245401897281192 4.3607176615695566 114 85 29
-1.2354079435793845 2.1473794613981614 4.7050961837666128 107 89 53
-1.5221023687628810 -1.4728966365337752 4.3676492839414935 118 88 28
-1.2916412374604185 1.7811911097734372 4.3839770646753164 77 54 22
0.0501786543980825 1.5005972715580538 3.7936952019627950 42 23 8
-1.5796405939457334 -1.9153181455994244 4.3244247201123924 120 87 44
0.7421438944565160 -1.4681016019277553 4.4604937954826918 93 74 59
0.7421438944565160 -1.4681016019277553 4.4604937954826918 93 74 59
0.6583206232542101 -1.7792811423289330 4.4293449046231324 43 23 0
-2.9772237575997789 -1.1582742731408002 6.1329531357188536 156 141 74
-1.5510464718055230 0.2968563573618262 4.5747890906341979 109 85 37
-0.3600864361982627 1.8835895105021287 4.3743189461451299 94 77 47
-1.6028293117349453 0.3144345013591664 4.5731036233639761 122 96 47
-1.6028293117349453 0.3144345013591664 4.5731036233639761 122 96 47
-0.4073067947676607 1.8875951693342650 4.2912697254264316 69 31 0
0.6109081504497935 1.8624351907262566 4.5606934812054059 56 29 8
-0.4053813383114160 1.8835158736633759 4.2826406147538467 69 31 0
-1.5775004259740624 2.4164282752873101 4.8041814458180534 37 20 0
0.0796831037031813 -1.5643254119706567 4.4500770628258017 42 30 6
-0.4574739094051110 1.8791857699662220 4.2814068323297549 195 160 76
0.7396238352038520 -1.5253362807582302 4.4538314520510536 45 18 1
0.4605184735233345 1.4923021505735559 3.7748910545404781 37 23 0
-0.4574739094051110 1.8791857699662220 4.2814068323297549 195 160 76
0.6524971981790036 -1.5129129280065243 4.4565383372159717 28 14 3
-1.5633593062733249 1.0848765653868009 4.6756156241109030 124 107 61
-1.5631731709244336 1.0955921459917699 4.6592569453025936 61 43 3
-0.4054583216390141 1.8938331943720732 4.2010209238105363 185 146 89
-0.2260800721156969 -1.1682028346639735 3.5651206707933398 217 196 143
-0.3588464131023292 1.8837741666985275 4.3284041367223480 196 154 82
0.6194022108916941 1.9045826776337285 4.6749111129352636 101 77 53
-1.6210953657261278 0.7085630952385036 4.6252915890870758 91 68 26
-0.2309312399577002 1.9133245766091864 3.9938098637869568 106 74 49
-1.6210953657261278 0.7085630952385036 4.6252915890870758 91 68 26
-0.4924764264751286 1.9128328787116495 3.8197489204382427 159 134 80
-0.3766670149642683 1.9302007862434269 3.7930951851070236 92 62 28
-1.2667549273467622 1.6581221979632779 4.6092855761270926 122 103 70
-1.1764530964618454 1.8233289231056193 4.4194943675091602 177 151 100
-1.1794806061630989 1.8275719850166929 4.4263629259284096 166 145 90
0.4173712254763435 1.5186701132724167 3.6408349054347968 140 122 84
-1.5799802367496718 0.3353020473744430 4.5506070101207792 192 165 98
-1.5799802367496718 0.3353020473744430 4.5506070101207792 192 165 98
-0.9261397893606411 0.8411453777995129 4.5175307980557928 234 203 146
0.7349305100188561 -1.8654978814822920 4.4222574560735088 254 224 162
-1.2681465747082625 1.5804021322774160 4.8503620545137798 64 50 24
0.4858196183130638 1.7480741951355143 3.9919332195059365 42 35 16
-1.4187538124642747 1.8081665157781230 4.4881265419203995 67 47 20
-1.4281512617019141 1.8443823006839293 4.5226043787670998 115 97 59
-1.2153061037766981 1.7728628716786865 4.3943858416369261 146 134 82
-1.2153061037766981 1.7728628716786865 4.3943858416369261 146 134 82
-1.2268831299905836 1.8054923631101853 4.3125469330021735 183 154 98
0.7319846211613978 1.8878728504119462 4.3830910530363036 186 137 71
0.0322013785779320 1.4761494638367949 3.9395195846682558 97 78 46
0.7911341885153288 1.8856907610787645 4.3462619189802565 157 118 59
-1.7391306873681522 1.7596218643871855 5.0938151952971058 43 35 16
-1.3149644868981509 1.6477567542875995 4.6180385150013450 133 113 63
-1.2455835916672584 1.7833248607019190 4.3936442223447409 58 48 23
-1.2426223131507583 1.7811781601622889 4.3875743435823642 58 48 23
-1.1728866764440684 1.8431810216419564 4.3973480652371819 42 30 18
0.4268908060173287 -1.0564204041998102 3.2579041691656214 41 29 7
0.8099429652480969 -1.4721446876368964 4.4667319741456382 45 25 0
0.8853314426113297 -1.4716600592359763 4.4681188540259003 23 5 0
-1.5097657247340059 -1.9647466504369255 4.2855449862172819 168 142 91
-0.5023287884985613 1.8742904598192345 4.1104163641349043 79 55 19
-1.5934232644360931 1.7078497451579240 4.7773697691312869 103 89 44
0.6468442733124449 -1.4736325466102926 4.4567019542895236 45 28 10
-1.5934232644360931 1.7078497451579240 4.7773697691312869 103 89 44
0.6468442733124449 -1.4736325466102926 4.4567019542895236 45 28 10
-1.4249997910538994 -1.5083235736193423 4.3510284384548150 83 71 47
-1.5653083623009534 -1.4333433673890457 4.3696356516317003 255 226 166
-1.5092886769069083 -1.4206409562350282 4.3828508960261292 226 198 135
-1.2385228017711256 1.7741287596896342 4.4190277713413586 156 133 79
-1.3741277177927498 1.7424388433315674 4.5895889221261124 145 123 76
0.2355301279992277 0.8165499903035487 3.3971123402389445 95 115 30
0.2355301279992277 0.8165499903035487 3.3971123402389445 95 115 30
-1.5343257940157904 1.7318460999848844 4.8012277879189575 127 109 69
-1.5465705068801878 1.7144584472382425 4.6575962967162248 60 50 25
-1.5464369559472622 1.7400781008317046 4.8239809712549091 127 109 69
-1.6043329139741693 0.3393241261779680 4.9267902467109632 169 147 87
-1.4666154854343092 1.7498495432092156 4.7091104304983951 59 44 23
-0.0510879808078312 1.4560591504636622 3.7098982344874547 93 70 36
-1.2528116662676574 1.8012065013829641 4.3483108293090345 161 134 81
-1.2064583071602744 1.8094887407595557 4.3867857635742746 37 24 7
-1.3880189913095238 1.7912367741793456 4.4819205243968767 74 54 29
0.2626127420143113 1.4459160722267073 4.0419457249383033 59 43 20
0.4720008049455467 1.4707071033724963 3.9578723852051012 43 32 12
0.6427245224566824 -1.0092180784810179 3.4693664782209050 60 76 11
-1.0641003782448306 1.6562080499134566 4.5018102318764566 57 49 28
0.6427245224566824 -1.0092180784810179 3.4693664782209050 60 76 11
0.4323366289667790 0.0220748530284793 3.6339795140336810 81 106 14
0.4323366289667790 0.0220748530284793 3.6339795140336810 81 106 14
-0.5879587937201314 1.7444981983909511 4.4742523880131815 248 212 150
-1.1687282925236553 1.8550941690482570 4.2338182438132090 82 62 35
0.2120165910130059 -0.2732919865744539 3.5880336878174623 71 91 4
-0.0448349677927055 -0.5631183711886399 3.6004686474324186 219 195 133
-0.4865298520208218 1.9248604874555491 4.4615178051844699 187 152 84
0.0492504425223358 1.5018390133522830 3.7704394967634562 112 89 47
-1.6524947042566076 2.4336535087549716 4.8238014039961206 44 26 4
-1.5932057349308968 -1.9230605207535507 4.3372062526500956 120 87 44
0.0503203338748690 -1.1860975501672029 3.6420043811285794 201 180 125
0.2503235440422920 1.4983153547393999 3.7520181306284393 165 146 87
-1.5332730943877364 -1.4812814688197620 4.4385360591626535 226 200 141
-1.5332730943877364 -1.4812814688197620 4.4385360591626535 226 200 141
-0.4718294749342511 1.8762409971542795 4.2116928553285131 180 144 92
-0.3878176932226802 1.9117586721530573 3.9989753945044084 96 71 15
0.8346964396263042 1.7983434432215597 4.4279231899848153 214 177 107
-1.5338705584721202 -1.4776128557731385 4.3790594173601889 118 88 28
0.5188216619699164 0.6398942655696889 3.5802842816897500 229 210 142
0.4319155986849376 -1.3738999297777290 4.4815814445190840 98 72 21
-1.5930602126539657 -1.4672137609366374 4.3874352556709910 132 102 52
-0.2787051577273191 -2.3698215104022480 4.8958534075501605 22 14 3
-1.9521446393873125 1.3231832139152588 5.0086906660534884 55 41 15
-1.2180345120330536 1.7892656457266212 4.5260246123510246 71 56 37
